ply
format ascii 1.0
comment Created by Open3D
element vertex 1913
property double x
property double y
property double z
end_header
7.40841 -0.207169 130.199
7.37077 -0.177026 130.205
7.41094 -0.177698 130.192
7.35574 -0.369019 130.228
7.40859 -0.379936 130.213
7.47308 2.08193 129.925
7.47163 1.9778 129.935
7.45038 1.94064 129.942
7.44813 1.90609 129.945
7.45648 1.90675 129.94
7.40808 1.91514 129.951
7.41126 -0.258656 130.212
7.39653 -0.245521 130.212
7.44393 2.18633 129.911
7.38223 -0.188244 130.197
7.44661 2.1561 129.913
7.36115 -0.179744 130.202
7.36315 -0.381487 130.229
7.38582 -0.459331 130.237
7.37328 -0.448141 130.239
7.47454 2.09478 129.926
7.45458 1.96418 129.943
7.42942 1.89186 129.952
7.42969 1.89389 129.95
7.44447 1.90521 129.943
7.38466 -0.247165 130.214
7.37182 -0.242655 130.215
7.39616 -0.462921 130.238
7.4312 2.16407 129.914
7.46952 1.98441 129.936
7.47213 2.0108 129.934
7.44263 2.20195 129.911
7.46755 2.09861 129.92
7.44409 2.14377 129.92
7.45723 2.12388 129.918
7.38373 -0.201964 130.206
7.45365 2.18017 129.91
7.39262 -0.465277 130.238
7.43908 1.94254 129.951
7.44935 1.95113 129.943
7.41117 1.91534 129.949
7.39483 -0.19895 130.21
7.37141 -0.166204 130.203
7.43624 2.20327 129.911
7.43187 2.17357 129.914
7.34743 -0.192329 130.206
7.40308 -0.240012 130.213
7.36168 -0.458377 130.245
7.36443 -0.459309 130.243
7.34944 -0.421891 130.238
7.35756 -0.370806 130.225
7.4457 1.99036 129.944
7.41711 1.89301 129.956
7.40674 1.8829 129.957
7.40742 1.91145 129.949
7.39192 -0.222347 130.213
7.35085 -0.248579 130.223
7.34326 -0.166262 130.211
7.3537 -0.172259 130.204
7.40181 2.22459 129.919
7.3756 -0.233985 130.213
7.45665 2.03294 129.938
7.4223 2.09058 129.937
7.45323 2.17632 129.923
7.41805 2.20302 129.92
7.44066 2.17679 129.917
7.43284 2.0995 129.931
7.4092 2.1661 129.929
7.40835 2.1278 129.934
7.42293 1.93001 129.954
7.40846 1.89979 129.96
7.34368 -0.470146 130.247
7.38793 1.9063 129.958
7.33827 -0.380666 130.235
7.34239 -0.367425 130.23
7.32296 -0.381919 130.235
7.36713 -0.239798 130.219
7.41022 2.21474 129.915
7.37015 -0.451652 130.245
7.42395 1.95925 129.954
7.33232 -0.165564 130.207
7.36164 -0.443924 130.24
7.43315 1.92765 129.954
7.40203 1.9208 129.961
7.33456 -0.44744 130.245
7.32821 -0.399667 130.24
7.38988 1.89844 129.962
7.31817 -0.381041 130.238
7.38183 1.90149 129.962
7.37719 1.92834 129.958
7.32038 -0.488422 130.256
7.3624 -0.203129 130.22
7.37294 -0.207877 130.216
7.35253 -0.44806 130.248
7.38361 1.92894 129.957
7.35509 -0.192364 130.213
7.42259 2.09254 129.939
7.34263 -0.229673 130.221
7.43103 2.03524 129.945
7.43199 2.01201 129.946
7.41718 1.99527 129.952
7.42047 2.13807 129.936
7.42459 2.17305 129.928
7.43451 2.1145 129.935
7.41116 2.21849 129.918
7.41111 2.18709 129.926
7.41408 2.10914 129.935
7.38812 2.22709 129.92
7.43582 2.20048 129.925
7.34607 -0.468354 130.25
7.29595 -0.387761 130.243
7.31903 -0.427049 130.244
7.36987 -0.228948 130.218
7.37388 1.91249 129.963
7.31391 -0.160442 130.214
7.33195 -0.247155 130.226
7.31461 -0.406169 130.243
7.30644 -0.474747 130.257
7.31224 -0.48703 130.258
7.39371 1.91817 129.965
7.40967 1.91761 129.962
7.39003 1.91764 129.964
7.35043 1.93036 129.963
7.3395 -0.209831 130.225
7.31114 -0.252204 130.233
7.39709 2.06694 129.952
7.39317 1.94952 129.965
7.31279 -0.17115 130.222
7.32987 -0.194696 130.22
7.40619 2.13501 129.939
7.40474 2.11329 129.942
7.3941 2.19143 129.931
7.39582 2.13369 129.94
7.39859 2.1099 129.942
7.3832 2.22303 129.926
7.37063 2.2297 129.925
7.40748 2.17142 129.932
7.29546 -0.394121 130.245
7.30411 -0.433806 130.249
7.36441 1.9368 129.963
7.36043 1.94665 129.962
7.40366 1.92614 129.964
7.38618 1.90527 129.97
7.37062 1.93509 129.967
7.37291 1.9193 129.966
7.35941 1.90302 129.97
7.30913 -0.460539 130.261
7.29151 -0.475032 130.262
7.27956 -0.386685 130.248
7.28373 -0.466525 130.262
7.27881 -0.464222 130.265
7.36267 1.93532 129.969
7.34435 1.95169 129.966
7.37954 1.92242 129.968
7.32539 -0.211062 130.229
7.3071 -0.159006 130.221
7.29367 -0.161056 130.222
7.38925 2.05153 129.954
7.38399 2.00979 129.96
7.29344 -0.192154 130.231
7.3112 -0.23348 130.23
7.3662 2.2021 129.936
7.35336 2.21346 129.936
7.37664 2.19302 129.936
7.35602 2.22458 129.932
7.34732 2.22507 129.931
7.38774 2.20106 129.936
7.39887 2.18362 129.932
7.32487 -0.212629 130.232
7.31395 -0.226568 130.234
7.32287 -0.450338 130.258
7.25727 -0.16152 130.232
7.29401 -0.242956 130.238
7.26562 -0.400318 130.254
7.27964 -0.417576 130.254
7.27824 -0.430646 130.257
7.32764 1.94696 129.97
7.37139 1.90592 129.973
7.34965 1.90737 129.971
7.29517 -0.229871 130.239
7.29191 -0.236898 130.239
7.30352 -0.435962 130.263
7.27464 -0.138776 130.221
7.37184 1.89291 129.976
7.34565 1.911 129.979
7.35331 1.88163 129.98
7.34253 1.92463 129.976
7.3163 1.94908 129.97
7.27463 -0.190882 130.237
7.28746 -0.229785 130.238
7.3712 2.05459 129.959
7.36828 1.98638 129.968
7.36601 2.02206 129.964
7.3121 1.94429 129.975
7.26218 -0.451239 130.27
7.26336 -0.420562 130.259
7.33514 1.9477 129.97
7.33709 1.87495 129.989
7.34849 1.93308 129.975
7.35752 1.87727 129.98
7.32485 1.9079 129.98
7.32533 1.90806 129.978
7.29353 1.95284 129.978
7.28681 -0.156564 130.236
7.27212 -0.212887 130.245
7.25982 -0.21893 130.247
7.27895 -0.446776 130.269
7.2601 -0.44425 130.268
7.26855 -0.427712 130.261
7.24839 -0.414401 130.264
7.2483 -0.423867 130.262
7.3197 1.93103 129.976
7.33278 1.90321 129.983
7.29479 1.95296 129.976
7.22438 -0.134657 130.235
7.23797 -0.122922 130.229
7.28567 -0.168129 130.229
7.27301 -0.208482 130.24
7.35498 2.03332 129.967
7.35964 1.98728 129.971
7.34825 2.18462 129.95
7.33844 2.18314 129.949
7.32062 2.20656 129.946
7.30585 2.21062 129.944
7.30254 1.89539 129.99
7.30838 1.90248 129.987
7.31755 1.872 129.991
7.30813 1.89674 129.985
7.2943 1.9024 129.987
7.2806 -0.200055 130.243
7.27524 -0.225215 130.243
7.26233 -0.445372 130.274
7.23999 -0.401894 130.266
7.23034 -0.423142 130.272
7.22061 -0.433887 130.269
7.3308 1.86482 129.99
7.30457 1.86747 129.992
7.29842 1.88419 129.99
7.27002 1.94664 129.985
7.27199 -0.173284 130.241
7.22676 -0.404061 130.269
7.21379 -0.433054 130.272
7.32028 1.85629 129.995
7.31711 1.88741 129.988
7.24837 -0.186971 130.243
7.23373 -0.167705 130.241
7.21619 -0.0851746 130.23
7.29491 1.85967 129.998
7.30346 1.85935 129.996
7.27413 1.9442 129.983
7.23476 -0.439614 130.276
7.19932 -0.415563 130.277
7.3052 1.84975 130
7.30256 1.84433 130
7.27577 1.88543 129.994
7.26964 1.92671 129.99
7.25263 1.89647 129.998
7.243 -0.220808 130.252
7.21975 -0.418401 130.275
7.24963 -0.209845 130.247
7.22871 -0.154008 130.238
7.20484 -0.0826201 130.233
7.31421 2.13984 129.966
7.28593 2.18404 129.96
7.30297 2.16183 129.963
7.26886 2.20199 129.957
7.28578 1.87638 129.998
7.29002 1.87587 129.994
7.25742 1.88086 130.001
7.25313 1.92786 129.993
7.22688 -0.219613 130.257
7.248 1.90437 129.997
7.23175 -0.452606 130.284
7.22873 -0.444274 130.281
7.20715 -0.448194 130.284
7.20173 -0.416236 130.275
7.19966 -0.440515 130.277
7.19713 -0.0369849 130.23
7.20308 -0.0510556 130.231
7.18816 -0.449459 130.287
7.19563 -0.435074 130.282
7.1708 -0.446489 130.286
7.18308 -0.459893 130.283
7.27861 1.84842 130.007
7.23634 1.89726 130
7.27032 1.87013 130.008
7.1827 -0.0383194 130.237
7.18937 -0.0601623 130.237
7.19102 -0.0748858 130.237
7.20028 -0.10177 130.237
7.19981 -0.118124 130.24
7.21149 -0.221786 130.26
7.21663 -0.197999 130.253
7.30056 2.12878 129.971
7.26663 1.86701 130.009
7.22876 -0.197095 130.256
7.27189 1.87687 130.004
7.23654 1.89163 130.003
7.18061 -0.0174066 130.233
7.21052 -0.456002 130.289
7.17093 -0.442581 130.288
7.26863 1.88952 130.008
7.25484 1.88027 130.01
7.25496 1.88895 130.005
7.16618 -0.0119684 130.235
7.21768 1.90263 130.004
7.18925 -0.460912 130.294
7.18125 -0.45069 130.291
7.16275 -0.445352 130.29
7.15734 -0.079469 130.248
7.17575 -0.194261 130.262
7.19149 -0.202489 130.261
7.16346 -0.177064 130.261
7.15519 -0.466271 130.291
7.26482 2.1386 129.978
7.26054 2.16753 129.971
7.21921 2.18582 129.973
7.16524 -0.0158343 130.238
7.25337 1.84723 130.015
7.22934 1.8784 130.017
7.21446 1.88539 130.012
7.15379 -0.449146 130.294
7.20959 1.91029 130.004
7.25211 1.87493 130.014
7.23841 1.84025 130.021
7.19455 1.92813 130.008
7.16294 -0.450651 130.303
7.16553 -0.451059 130.301
7.17295 -0.456389 130.297
7.16194 -0.441948 130.296
7.1575 -0.450766 130.296
7.17898 -0.208236 130.27
7.17417 -0.213361 130.27
7.17019 -0.204075 130.268
7.1438 -0.159068 130.263
7.14207 -0.45116 130.296
7.15448 -0.0537925 130.246
7.13657 -0.097045 130.256
7.25105 1.85115 130.017
7.21796 1.88597 130.015
7.1434 -0.0364349 130.247
7.19129 1.94164 130.007
7.19189 1.92024 130.012
7.20544 1.90278 130.011
7.15196 -0.441062 130.303
7.21848 1.85412 130.022
7.141 -0.0248025 130.246
7.19513 1.88707 130.018
7.1815 1.93565 130.013
7.17691 1.94477 130.01
7.14493 -0.419763 130.299
7.14116 -0.202778 130.278
7.13102 -0.189568 130.273
7.14289 -0.436303 130.299
7.13109 -0.441286 130.3
7.11542 -0.455148 130.302
7.14356 -0.117509 130.256
7.22275 2.1365 129.99
7.21771 2.15298 129.986
7.24922 2.18271 129.968
7.25593 2.11836 129.985
7.12067 -0.0225528 130.251
7.19149 1.88611 130.023
7.20727 1.87278 130.022
7.11671 -0.407246 130.303
7.19353 1.88233 130.021
7.20371 1.84259 130.029
7.19092 1.87637 130.026
7.187 1.84246 130.033
7.2055 1.84413 130.027
7.1734 1.94612 130.013
7.16819 1.9196 130.021
7.10871 -0.0691008 130.26
7.10409 -0.200124 130.284
7.11087 -0.427647 130.304
7.0866 -0.424501 130.309
7.20978 1.85299 130.028
7.18106 1.85957 130.034
7.18133 1.85614 130.031
7.16823 1.89152 130.03
7.15325 1.93536 130.021
7.15891 1.93827 130.015
7.13467 -0.434473 130.309
7.12834 -0.4064 130.305
7.12153 -0.395793 130.304
7.1725 1.8786 130.031
7.16009 1.88594 130.031
7.17213 1.84714 130.035
7.11084 -0.398062 130.308
7.12 -0.201559 130.284
7.07575 -0.0707 130.27
7.09754 -0.0979603 130.267
7.19235 2.13214 130
7.17829 2.14176 130
7.15829 2.15562 130
7.15294 2.17199 129.993
7.15095 1.87352 130.037
7.08553 -0.0371886 130.262
7.13847 1.92632 130.028
7.14559 1.94023 130.021
7.15785 1.89675 130.028
7.11509 -0.420136 130.312
7.10703 -0.38911 130.308
7.09124 -0.428145 130.318
7.10112 -0.38035 130.307
7.09332 -0.406627 130.308
7.12832 1.89352 130.038
7.15645 1.85736 130.041
7.15118 1.8601 130.039
7.11584 1.95233 130.027
7.08855 -0.383199 130.312
7.08785 -0.410012 130.314
7.06401 -0.426751 130.315
7.05708 -0.437275 130.314
7.06988 -0.39143 130.314
7.06928 -0.415402 130.314
7.06218 -0.0755696 130.274
7.13705 1.85612 130.048
7.09573 1.92377 130.039
7.088 -0.00772105 130.267
7.07963 -0.02669 130.269
7.06183 -0.0279706 130.267
7.08198 -0.454315 130.327
7.08198 -0.381544 130.312
7.07627 -0.419659 130.318
7.0555 -0.430559 130.318
7.08988 -0.0250706 130.267
7.13974 1.8846 130.038
7.13631 1.86774 130.043
7.11559 1.94308 130.031
7.07999 -0.0059346 130.268
7.06001 -0.39264 130.318
7.03947 -0.457254 130.327
7.02887 -0.434745 130.324
7.0376 -0.430529 130.32
7.05317 -0.398567 130.319
7.05047 -0.428405 130.321
7.07802 -0.00313059 130.271
7.07789 -0.0243715 130.272
7.06932 -0.0360008 130.274
7.07175 -0.207931 130.298
7.0363 -0.189008 130.301
7.06698 -0.162141 130.287
7.10465 2.15779 130.012
7.09802 2.16485 130.009
7.09123 1.94203 130.038
7.08137 1.96337 130.034
7.0611 0.00880148 130.273
7.06419 -0.0269798 130.273
7.03913 -0.0292242 130.273
7.05167 -0.45579 130.334
7.06308 -0.42036 130.322
7.04613 -0.403386 130.322
7.03808 -0.424931 130.326
7.03807 -0.448549 130.328
7.10141 1.90692 130.042
7.05746 -0.0216481 130.278
7.05066 -0.00772944 130.276
7.03626 -0.0346488 130.276
7.0663 -0.440242 130.326
7.0357 -0.429127 130.328
7.05926 -0.0020726 130.276
7.05022 -0.0256377 130.279
7.00883 -0.0723556 130.289
7.05689 -0.111711 130.282
7.07623 -0.203084 130.299
7.04052 -0.215467 130.307
7.05892 -0.204633 130.298
7.0395 -0.456443 130.333
7.02373 -0.458505 130.337
7.00728 -0.45283 130.339
7.0101 -0.460951 130.334
7.03156 -0.480104 130.342
7.06061 1.95515 130.044
7.00641 -0.0314107 130.284
7.01902 -0.441289 130.333
7.08066 1.9257 130.045
7.0007 -0.444744 130.333
7.01022 -0.0237741 130.281
7.10264 1.89484 130.045
7.01692 -0.462239 130.334
6.98569 -0.109404 130.302
7.03308 -0.209502 130.311
7.03424 -0.210426 130.307
7.00903 -0.158009 130.303
7.04662 -0.00271991 130.279
7.10911 2.13564 130.021
7.07999 2.16687 130.01
7.0736 1.93711 130.044
6.97418 -0.4626 130.343
7.03008 -0.48058 130.341
6.99206 -0.47528 130.342
7.09846 1.8856 130.051
7.07159 1.89025 130.06
7.00125 -0.454409 130.339
7.00799 -0.491419 130.347
7.07499 1.87992 130.061
7.00992 -0.473147 130.342
7.06427 1.8984 130.06
7.06419 1.89327 130.058
7.03895 1.9577 130.048
7.01695 1.96768 130.052
6.98396 -0.0528133 130.293
7.02161 -0.208948 130.312
7.00463 -0.183292 130.31
6.99462 -0.502852 130.354
6.9769 -0.515246 130.358
6.99171 -0.465 130.345
6.954 -0.484602 130.355
7.04161 1.90287 130.062
7.05493 1.9268 130.053
6.97197 -0.511138 130.358
6.98478 -0.470079 130.345
6.93789 -0.0818646 130.31
6.96537 -0.035852 130.294
7.00652 -0.197101 130.316
6.99491 -0.180047 130.315
6.97611 -0.173372 130.318
6.98383 -0.161789 130.312
7.07378 2.12839 130.033
7.02992 2.15139 130.035
7.03647 2.15835 130.029
7.04809 1.93986 130.051
7.026 1.94571 130.054
7.00491 1.95573 130.057
6.91868 -0.475552 130.357
6.9902 -0.509748 130.358
6.9666 -0.478605 130.354
6.9365 -0.470588 130.353
7.00392 1.95337 130.061
7.00581 1.9481 130.059
6.99528 1.96643 130.057
7.01484 1.93721 130.064
6.97126 -0.54919 130.365
6.96918 -0.56329 130.37
6.95679 -0.473208 130.355
6.99447 -0.200068 130.321
6.97961 -0.176889 130.32
6.96277 -0.159838 130.318
6.98979 1.95779 130.061
6.94935 -0.529754 130.366
6.9634 -0.567166 130.371
6.94012 -0.498841 130.362
6.94852 -0.484313 130.355
6.92054 -0.495004 130.363
6.91262 -0.483757 130.361
7.01909 1.8877 130.076
7.0439 1.88121 130.07
7.02706 1.90951 130.069
6.98998 1.95714 130.063
6.98115 1.95446 130.063
7.00967 1.90492 130.071
7.02669 1.90505 130.071
6.95535 -0.177172 130.327
6.94923 -0.187403 130.332
6.94684 -0.176585 130.325
6.93566 -0.131264 130.32
6.93604 2.15562 130.06
7.02042 2.14012 130.043
6.94419 -0.577455 130.378
6.91868 -0.539298 130.374
6.919 -0.526965 130.372
6.91654 -0.52921 130.369
6.89807 -0.519054 130.37
6.99023 1.95214 130.067
6.92885 -0.508638 130.364
6.93258 -0.574431 130.379
6.8991 -0.551736 130.376
6.98727 1.88988 130.085
6.97846 1.90835 130.081
6.97096 1.95626 130.072
6.9826 1.91366 130.077
7.01511 2.15899 130.031
6.9132 -0.0539934 130.312
6.90635 -0.0972268 130.321
6.93579 -0.180047 130.331
6.92731 -0.178962 130.33
6.89957 -0.550348 130.382
6.89591 -0.548242 130.381
6.88248 -0.518385 130.372
6.99517 1.90201 130.079
6.9797 1.94605 130.072
6.96037 1.96795 130.072
6.96214 1.97304 130.069
6.95669 1.96628 130.07
6.94321 1.94514 130.075
6.91633 -0.573499 130.386
6.9135 -0.568663 130.383
6.8799 -0.545042 130.379
6.86513 -0.519082 130.377
6.97509 1.9095 130.083
6.94813 1.91306 130.086
6.87811 -0.058058 130.321
6.87381 -0.14459 130.337
6.92211 -0.175014 130.337
6.9275 -0.199402 130.334
6.89521 -0.16413 130.335
6.90645 -0.20174 130.339
6.98379 2.14022 130.055
6.95823 2.15201 130.057
6.88335 -0.553636 130.382
6.86261 -0.541093 130.383
6.92663 1.92075 130.082
6.91973 -0.189173 130.341
6.93802 1.95472 130.081
6.95708 1.94096 130.078
6.94055 1.96431 130.077
6.94575 1.92359 130.084
6.86373 -0.54152 130.385
6.92481 1.95811 130.081
6.93213 1.92929 130.086
6.87805 -0.541589 130.385
6.86298 -0.0647014 130.327
6.88277 -0.0818375 130.325
6.88374 -0.552245 130.391
6.88912 -0.555381 130.388
6.91433 2.15063 130.061
6.89395 -0.167941 130.344
6.90718 -0.178743 130.34
6.89448 -0.19875 130.344
6.87497 -0.163601 130.341
6.88631 -0.202729 130.345
6.94407 1.91501 130.089
6.90091 1.90845 130.092
6.90018 1.90587 130.091
6.83442 -0.509362 130.388
6.86748 -0.124725 130.335
6.97308 1.87874 130.091
6.9558 1.91093 130.092
6.93566 1.92218 130.091
6.93074 1.92435 130.089
6.86387 -0.515018 130.385
6.85598 -0.510062 130.386
6.83122 -0.503686 130.386
6.9103 1.94182 130.091
6.89361 1.95327 130.091
6.8537 -0.145381 130.343
6.93027 1.95046 130.088
6.91782 1.94249 130.09
6.9033 2.15319 130.067
6.86498 -0.151267 130.349
6.87253 -0.180073 130.348
6.87019 -0.159544 130.343
6.86609 -0.180604 130.347
6.87032 -0.197308 130.349
6.8666 -0.526544 130.394
6.94815 2.1444 130.065
6.91633 1.96481 130.091
6.91541 1.96199 130.085
6.8641 -0.532996 130.391
6.83233 -0.491358 130.392
6.82159 -0.50262 130.392
6.85079 -0.119687 130.339
6.92013 1.9416 130.097
6.93538 1.93265 130.092
6.92321 1.95822 130.091
6.90916 1.96572 130.093
6.90064 1.95445 130.094
6.90147 1.94071 130.094
6.88709 1.95008 130.094
6.87471 1.91699 130.098
6.8383 -0.50517 130.394
6.84399 -0.51198 130.396
6.83866 -0.515045 130.389
6.81289 -0.489688 130.39
6.82878 -0.127968 130.349
6.8896 2.15 130.066
6.81996 -0.0466586 130.336
6.85015 -0.173995 130.353
6.85026 -0.158562 130.35
6.83143 -0.135084 130.351
6.90565 1.95236 130.099
6.87383 1.93486 130.101
6.88028 1.936 130.098
6.884 1.93094 130.095
6.82155 -0.489891 130.393
6.83684 -0.0618842 130.335
6.83414 -0.0859158 130.34
6.88531 1.95484 130.1
6.88154 1.95405 130.099
6.87035 1.92132 130.1
6.85717 1.92133 130.104
6.86223 1.92295 130.1
6.83597 -0.148156 130.358
6.85117 -0.166196 130.353
6.79747 -0.0406069 130.342
6.85128 -0.151802 130.356
6.83178 -0.157485 130.356
6.87916 2.15628 130.081
6.88872 2.15868 130.074
6.8124 -0.164007 130.365
6.89447 1.95629 130.1
6.84491 1.92949 130.109
6.8368 -0.486685 130.398
6.8284 -0.490959 130.399
6.81827 -0.474073 130.397
6.8236 -0.474918 130.395
6.8188 -0.486088 130.396
6.84525 1.92685 130.104
6.80814 -0.0936464 130.35
6.86894 1.94571 130.107
6.83802 1.93351 130.107
6.81343 -0.482379 130.403
6.80121 -0.495957 130.403
6.77932 -0.486578 130.402
6.78972 -0.482599 130.396
6.79903 -0.0776719 130.349
6.77614 -0.0605751 130.353
6.85086 2.15385 130.077
6.85961 2.14603 130.079
6.82151 -0.136154 130.356
6.82111 -0.138902 130.363
6.86358 1.95549 130.105
6.78386 -0.487245 130.403
6.87768 1.95837 130.106
6.84377 1.96351 130.109
6.82932 1.93759 130.108
6.79721 -0.480629 130.405
6.76468 -0.46823 130.4
6.79193 -0.112244 130.361
6.81995 2.15582 130.088
6.81296 2.15302 130.092
6.79245 -0.0962298 130.356
6.80704 -0.156325 130.364
6.88449 2.15345 130.084
6.7968 -0.149644 130.37
6.79422 -0.190149 130.376
6.85522 1.98423 130.112
6.85371 1.95331 130.112
6.843 1.96154 130.112
6.83413 1.95961 130.111
6.81807 1.93429 130.116
6.74711 -0.458637 130.408
6.78608 -0.149849 130.373
6.73444 -0.460567 130.407
6.83364 1.96154 130.115
6.80069 1.95618 130.115
6.80198 1.95377 130.114
6.7811 1.95059 130.118
6.756 -0.482822 130.413
6.75323 -0.50259 130.42
6.77761 -0.489405 130.41
6.76162 -0.0287182 130.352
6.79019 -0.166427 130.374
6.78693 -0.170418 130.375
6.80119 2.17552 130.09
6.78194 -0.157712 130.373
6.76966 -0.151839 130.376
6.77607 -0.136534 130.37
6.75427 -0.0580808 130.359
6.74826 -0.0913538 130.368
6.84255 2.15888 130.088
6.83113 2.14966 130.089
6.74055 -0.0156882 130.355
6.78714 -0.135243 130.372
6.77822 -0.160116 130.376
6.78196 -0.199877 130.381
6.81851 1.96907 130.119
6.80918 1.96447 130.119
6.7781 -0.486582 130.412
6.75364 -0.470735 130.411
6.74599 -0.0368524 130.359
6.7416 -0.0231244 130.359
6.727 -0.0220634 130.362
6.71751 -0.0330536 130.363
6.76749 -0.127923 130.376
6.73477 -0.453018 130.41
6.72672 -0.497711 130.425
6.73625 -0.462263 130.417
6.76898 1.95304 130.123
6.76379 -0.143749 130.377
6.76522 -0.169462 130.38
6.75173 -0.186611 130.386
6.80553 2.16803 130.098
6.78273 2.19778 130.092
6.82594 2.16662 130.096
6.75615 -0.119884 130.378
6.71877 -0.019903 130.366
6.72197 -0.0328629 130.368
6.73336 -0.0789601 130.369
6.75154 -0.16825 130.386
6.73311 -0.447947 130.414
6.78546 -0.478463 130.411
6.73357 -0.502166 130.425
6.72528 -0.485927 130.423
6.75169 -0.112276 130.379
6.75066 -0.133008 130.379
6.72302 0.0118039 130.364
6.72739 -0.00248107 130.365
6.70383 -0.101128 130.383
6.70976 -0.422914 130.42
6.70684 -0.435401 130.418
6.67657 -0.43971 130.423
6.70126 -0.446349 130.416
6.74211 -0.487927 130.425
6.79399 1.97213 130.123
6.78421 1.95896 130.125
6.79336 1.93839 130.122
6.73673 0.0248827 130.362
6.73735 0.0287649 130.36
6.73879 0.00873317 130.362
6.73993 0.013718 130.36
6.75234 -0.134219 130.377
6.79754 2.16028 130.098
6.75393 2.21743 130.097
6.71759 -0.000709809 130.366
6.71852 -0.0203012 130.368
6.70908 -0.0150523 130.368
6.69893 -0.0313213 130.37
6.71886 -0.436775 130.42
6.71518 -0.45578 130.425
6.70443 -0.421685 130.42
6.80768 1.97315 130.124
6.76495 1.95725 130.13
6.75832 1.936 130.132
6.76379 1.93483 130.129
6.71855 -0.49346 130.428
6.74453 1.94759 130.131
6.71542 -0.481146 130.426
6.73279 -0.117303 130.384
6.73199 0.0442869 130.361
6.7075 0.0261306 130.368
6.74755 -0.123403 130.375
6.70623 -0.0845355 130.378
6.72479 -0.392831 130.419
6.72204 -0.481935 130.43
6.71649 0.0528943 130.365
6.72677 0.0421975 130.362
6.72279 -0.0956342 130.384
6.73751 1.94015 130.136
6.71814 -0.404667 130.421
6.71864 0.0339309 130.367
6.77642 2.17438 130.106
6.74912 2.17894 130.11
6.78899 2.16779 130.107
6.7346 -0.0893419 130.381
6.72107 -0.129673 130.388
6.70553 0.00671574 130.369
6.70941 -0.0145899 130.373
6.68251 -0.0246908 130.377
6.70104 -0.126925 130.39
6.70278 -0.0646064 130.376
6.68683 -0.0842146 130.382
6.68651 -0.103121 130.385
6.7618 1.96662 130.134
6.6995 -0.354092 130.419
6.71873 -0.381618 130.417
6.70896 -0.415945 130.422
6.70336 -0.449342 130.43
6.72577 1.94811 130.134
6.70649 0.00815244 130.373
6.7099 -0.472677 130.431
6.69389 0.0230982 130.373
6.6867 -0.0051793 130.377
6.69105 -0.017475 130.378
6.67472 -0.103797 130.388
6.69929 -0.135123 130.395
6.74348 1.95761 130.136
6.7064 -0.41785 130.427
6.73872 1.95016 130.136
6.69562 0.0314521 130.374
6.70042 0.0507014 130.369
6.67796 -0.0399882 130.384
6.69532 -0.137644 130.395
6.69724 -0.00507972 130.377
6.73222 1.95217 130.134
6.71778 1.95648 130.136
6.69687 -0.049061 130.377
6.69164 -0.360544 130.42
6.67914 -0.39129 130.423
6.68351 -0.418837 130.423
6.63116 -0.428006 130.434
6.65341 -0.441897 130.428
6.77209 2.17467 130.101
6.74461 2.1988 130.105
6.70039 -0.3939 130.421
6.70585 -0.0777558 130.388
6.70742 -0.124494 130.391
6.6875 0.00403812 130.379
6.6763 -0.0160851 130.38
6.65722 -0.0318016 130.386
6.68439 -0.099114 130.388
6.66946 -0.0584045 130.385
6.74492 2.03201 130.132
6.66965 -0.0881962 130.389
6.66663 -0.0760155 130.388
6.73895 1.98584 130.14
6.65472 -0.0355167 130.382
6.74308 2.05866 130.128
6.73664 2.02111 130.131
6.7387 1.96742 130.138
6.7278 1.96526 130.136
6.71475 -0.37717 130.42
6.68598 -0.348967 130.424
6.68671 -0.33419 130.421
6.70908 1.9896 130.136
6.6794 -0.0964302 130.396
6.67367 -0.106554 130.399
6.67026 -0.0283212 130.384
6.64004 -0.0347894 130.389
6.6538 -0.0709748 130.392
6.75011 2.04801 130.132
6.73949 2.05492 130.131
6.64227 -0.0365624 130.384
6.74842 2.03544 130.135
6.74579 1.98999 130.14
6.73637 1.98523 130.139
6.70298 1.9934 130.14
6.67241 -0.0530208 130.388
6.68163 -0.258026 130.413
6.66658 -0.0575737 130.388
6.73616 1.99978 130.138
6.71922 2.06365 130.13
6.72101 1.98961 130.139
6.68869 0.0408918 130.374
6.67675 -0.320697 130.42
6.66812 -0.324605 130.421
6.7551 2.16563 130.117
6.74084 2.17674 130.117
6.72814 2.18502 130.116
6.62831 -0.38793 130.434
6.71978 2.19458 130.114
6.7097 2.22289 130.109
6.69909 -0.0630181 130.389
6.66084 -0.126801 130.405
6.65949 -0.0540219 130.391
6.65113 -0.0527892 130.391
6.73933 2.05848 130.134
6.74437 2.05893 130.131
6.65471 -0.131468 130.406
6.67485 -0.244332 130.414
6.73829 2.00821 130.14
6.72535 2.07429 130.129
6.6812 -0.325321 130.423
6.69059 2.00794 130.141
6.66148 -0.247936 130.416
6.60906 -0.417323 130.437
6.68371 -0.309762 130.419
6.73658 2.01049 130.139
6.6673 -0.270851 130.416
6.71173 1.99371 130.139
6.64095 -0.0513041 130.393
6.63599 -0.0402804 130.392
6.65594 -0.0842687 130.395
6.66613 -0.115952 130.398
6.70774 2.0758 130.141
6.71673 2.07596 130.135
6.66517 -0.245125 130.417
6.67779 2.00753 130.143
6.64978 -0.26367 130.419
6.69629 2.07373 130.134
6.64387 -0.297391 130.423
6.64522 -0.348148 130.427
6.64871 -0.377687 130.429
6.59259 -0.380736 130.441
6.66329 -0.0678909 130.399
6.65746 -0.0985161 130.401
6.65133 -0.125193 130.405
6.70194 2.08237 130.139
6.71099 2.09383 130.132
6.64226 -0.075657 130.397
6.62073 -0.052445 130.393
6.64502 -0.260868 130.426
6.65463 -0.24325 130.418
6.66432 2.03706 130.144
6.65157 -0.0789875 130.402
6.71532 2.06908 130.14
6.64003 -0.112915 130.407
6.60897 -0.0521074 130.395
6.62426 -0.256807 130.428
6.67063 2.02444 130.144
6.65942 2.00555 130.148
6.62139 -0.257841 130.427
6.64809 -0.117893 130.406
6.69335 2.10838 130.136
6.62159 -0.298175 130.428
6.6766 2.09218 130.137
6.68055 2.11615 130.135
6.67024 2.06217 130.141
6.61549 -0.35067 130.434
6.71701 2.15427 130.129
6.69138 2.11712 130.133
6.69277 2.17348 130.128
6.68664 2.18892 130.125
6.66939 2.21886 130.122
6.68684 2.08027 130.145
6.67825 2.10019 130.142
6.63459 -0.0714022 130.404
6.60194 -0.0624357 130.401
6.57586 -0.375848 130.442
6.69183 2.09657 130.144
6.68313 2.08053 130.144
6.63889 -0.0709251 130.406
6.635 -0.087608 130.405
6.63697 -0.110151 130.406
6.6116 -0.273574 130.429
6.58377 -0.383347 130.442
6.61401 -0.0625797 130.401
6.64287 2.09196 130.146
6.59701 -0.297078 130.434
6.59086 -0.35767 130.441
6.65298 2.05905 130.146
6.64042 2.03671 130.149
6.64357 2.01797 130.151
6.6862 2.13774 130.14
6.69759 2.15768 130.132
6.67224 2.14742 130.138
6.66194 2.14494 130.137
6.65923 2.11068 130.14
6.67111 2.15384 130.135
6.60742 -0.055997 130.413
6.58381 -0.091868 130.419
6.61893 -0.110544 130.41
6.61312 -0.0800147 130.405
6.68216 2.0775 130.146
6.67278 2.12799 130.139
6.63056 1.99634 130.157
6.56396 -0.37357 130.448
6.60273 -0.0766438 130.414
6.65099 2.05134 130.159
6.65604 2.05545 130.155
6.58195 -0.10276 130.419
6.6025 -0.254902 130.433
6.611 1.99513 130.162
6.55195 -0.367672 130.452
6.5936 -0.0750186 130.408
6.67028 2.09705 130.149
6.67842 2.11758 130.145
6.63665 2.08324 130.149
6.56357 -0.0789481 130.415
6.63426 2.06515 130.151
6.57846 -0.300892 130.44
6.55939 -0.339069 130.448
6.62867 2.06851 130.151
6.63625 2.06059 130.147
6.61807 2.01723 130.158
6.60879 2.05598 130.154
6.68371 2.15583 130.135
6.63835 2.13024 130.149
6.63629 2.13969 130.143
6.63191 2.18346 130.139
6.63334 2.20113 130.135
6.62204 2.22527 130.131
6.66905 2.18386 130.13
6.66406 2.07627 130.153
6.58773 -0.102396 130.419
6.61242 2.00364 130.162
6.58357 -0.253024 130.44
6.54131 -0.352223 130.448
6.65055 2.06206 130.159
6.65141 2.09541 130.149
6.58549 -0.262778 130.437
6.59241 2.02206 130.163
6.52559 -0.379171 130.456
6.65309 2.11683 130.152
6.56599 -0.0979347 130.422
6.54649 -0.0654095 130.414
6.58089 -0.279107 130.438
6.61083 2.08295 130.154
6.55687 -0.31033 130.447
6.60745 2.08269 130.153
6.59956 2.03594 130.159
6.65226 2.13857 130.149
6.61349 2.11284 130.152
6.59572 2.14219 130.153
6.61777 2.08325 130.154
6.61114 2.10496 130.16
6.54086 -0.372014 130.453
6.59533 2.00764 130.164
6.57377 -0.258391 130.445
6.56062 -0.279711 130.447
6.65195 2.07083 130.153
6.52967 -0.367787 130.457
6.52365 -0.102787 130.433
6.6306 2.1165 130.158
6.62045 2.07894 130.165
6.54086 -0.0813037 130.42
6.53182 -0.332585 130.455
6.58516 2.09988 130.158
6.5787 2.05718 130.163
6.62992 2.14025 130.153
6.62519 2.13605 130.153
6.58105 2.07724 130.16
6.60103 2.1014 130.155
6.59237 2.18148 130.148
6.60157 2.2172 130.138
6.54486 -0.0982975 130.43
6.53687 -0.287366 130.455
6.54188 -0.306336 130.452
6.61636 2.05703 130.169
6.63776 2.04714 130.162
6.61371 2.05425 130.166
6.56286 -0.0741446 130.427
6.56616 -0.0790853 130.425
6.58384 2.09061 130.17
6.52904 -0.300524 130.457
6.51992 -0.317215 130.458
6.5098 -0.341291 130.461
6.51321 -0.0922677 130.43
6.59807 2.11604 130.164
6.55162 2.11067 130.167
6.51335 -0.380413 130.46
6.58804 2.07238 130.171
6.57928 2.04533 130.179
6.53774 -0.282936 130.457
6.49214 -0.340512 130.466
6.52805 -0.302754 130.459
6.49244 -0.360042 130.464
6.4922 -0.0950472 130.446
6.51639 -0.327318 130.47
6.51435 -0.323432 130.466
6.50412 -0.305955 130.464
6.46896 -0.356742 130.47
6.583 2.05344 130.175
6.49884 -0.111139 130.444
6.57631 2.07869 130.177
6.59505 2.1016 130.169
6.57757 2.09855 130.172
6.53879 2.10314 130.171
6.55213 2.0637 130.171
6.48624 -0.0984383 130.436
6.53447 2.03907 130.177
6.49335 -0.109044 130.438
6.54843 2.18539 130.159
6.55205 2.14289 130.164
6.49136 -0.320379 130.466
6.46925 -0.331536 130.472
6.46555 -0.348544 130.474
6.56517 2.05793 130.183
6.59175 2.04613 130.176
6.55546 2.06312 130.183
6.56897 2.07736 130.176
6.49993 -0.108821 130.439
6.4734 -0.131597 130.447
6.46636 -0.135735 130.447
6.46001 -0.118631 130.445
6.50944 2.06326 130.184
6.47173 -0.36332 130.469
6.49961 2.02407 130.188
6.50576 -0.0840325 130.444
6.46698 -0.338704 130.477
6.55503 2.08003 130.182
6.46631 -0.332381 130.475
6.43758 -0.338052 130.48
6.44618 -0.35419 130.478
6.55023 2.0604 130.186
6.48863 -0.337248 130.475
6.45405 -0.119751 130.455
6.45644 -0.138809 130.453
6.51218 2.09875 130.18
6.48809 2.0527 130.192
6.4495 -0.142522 130.453
6.52585 2.18191 130.166
6.51454 2.14501 130.175
6.46509 -0.118463 130.455
6.4597 -0.117661 130.455
6.47024 -0.354257 130.485
6.46566 -0.356645 130.482
6.44831 -0.34665 130.482
6.42666 -0.347473 130.483
6.42362 -0.352392 130.481
6.45791 -0.0871096 130.457
6.44891 -0.117025 130.46
6.45955 -0.356749 130.486
6.44596 -0.332805 130.479
6.50305 2.03119 130.188
6.43388 -0.134849 130.459
6.42443 -0.138358 130.46
6.42717 -0.136848 130.458
6.48724 2.07378 130.191
6.49383 2.11764 130.186
6.52484 2.07856 130.192
6.53033 2.05634 130.194
6.47674 2.0335 130.196
6.44664 -0.363786 130.487
6.42105 -0.337562 130.485
6.50607 2.07842 130.195
6.48374 2.03543 130.2
6.47013 2.02627 130.197
6.4164 -0.122588 130.47
6.43177 -0.362592 130.492
6.42343 -0.361011 130.492
6.40016 -0.333955 130.487
6.44582 -0.345341 130.49
6.46808 2.04205 130.199
6.49555 2.04783 130.197
6.49276 2.05018 130.196
6.42446 -0.117262 130.463
6.50073 2.09924 130.194
6.49371 2.0764 130.196
6.48933 2.09617 130.195
6.48528 2.10974 130.191
6.47323 2.04931 130.199
6.49137 2.0753 130.193
6.48793 2.08885 130.191
6.47264 2.18221 130.182
6.46321 2.21369 130.177
6.48343 2.14975 130.186
6.49864 2.03381 130.204
6.46861 2.03089 130.208
6.41103 -0.340113 130.49
6.39647 -0.328675 130.489
6.438 -0.345432 130.49
6.47852 2.03345 130.207
6.42084 -0.108791 130.47
6.42785 -0.120925 130.468
6.4266 -0.311938 130.491
6.42887 -0.329981 130.494
6.416 -0.356636 130.495
6.387 -0.33887 130.497
6.42219 -0.308738 130.49
6.41337 -0.340163 130.494
6.49683 2.0575 130.201
6.48536 2.04975 130.203
6.38501 -0.107394 130.47
6.41061 -0.129492 130.461
6.49099 2.12135 130.196
6.48067 2.12027 130.195
6.47762 2.01596 130.211
6.41517 -0.113981 130.467
6.39635 -0.305976 130.497
6.40972 -0.320528 130.497
6.38941 -0.339642 130.5
6.39974 -0.361755 130.498
6.39164 -0.371915 130.503
6.45519 2.03566 130.205
6.46221 1.99407 130.217
6.4034 -0.0939557 130.474
6.41219 -0.117783 130.472
6.38824 -0.104731 130.472
6.38952 -0.319941 130.498
6.37762 -0.317568 130.498
6.39336 -0.357356 130.501
6.39278 -0.353179 130.498
6.37509 -0.38283 130.508
6.36591 -0.106049 130.472
6.36338 -0.104039 130.47
6.47327 2.12808 130.201
6.46025 2.13321 130.2
6.35882 -0.327006 130.499
6.42636 2.18786 130.195
6.42631 2.20816 130.189
6.44988 2.15358 130.197
6.47176 2.15167 130.19
6.47305 2.12901 130.195
6.38857 -0.0971143 130.476
6.40517 -0.308682 130.496
6.37547 -0.313993 130.502
6.44229 2.01657 130.217
6.36693 -0.387372 130.512
6.34944 -0.102884 130.473
6.41651 2.03071 130.216
6.43296 2.01922 130.209
6.36952 -0.338918 130.501
6.36408 -0.0778652 130.477
6.37911 -0.0987132 130.475
6.3673 -0.101843 130.473
6.38182 -0.34071 130.506
6.37029 -0.309296 130.501
6.37799 -0.328716 130.5
6.37237 -0.370937 130.509
6.37264 -0.349603 130.506
6.43941 2.02286 130.215
6.4042 2.01291 130.22
6.40657 2.00436 130.218
6.39625 1.98569 130.222
6.35219 -0.323828 130.502
6.44238 1.98212 130.226
6.39061 1.98438 130.227
6.32279 -0.344994 130.519
6.38488 -0.36614 130.509
6.34745 -0.385408 130.515
6.33976 -0.101424 130.477
6.34052 -0.315057 130.504
6.34921 -0.331105 130.505
6.3752 -0.0753428 130.48
6.35635 -0.0761822 130.475
6.38658 -0.380525 130.512
6.41465 2.00907 130.225
6.3622 -0.322351 130.508
6.40326 1.98995 130.235
6.3467 -0.306587 130.506
6.34513 -0.321127 130.507
6.36365 -0.374955 130.517
6.34138 -0.38278 130.518
6.33984 -0.0930417 130.479
6.41985 2.02666 130.218
6.39856 2.00808 130.226
6.32047 -0.0926157 130.483
6.32221 -0.130026 130.484
6.37644 1.96632 130.23
6.34738 -0.0654041 130.479
6.34193 -0.317355 130.507
6.43496 2.12579 130.212
6.33927 -0.36272 130.517
6.32726 -0.324899 130.505
6.3894 2.20398 130.201
6.38216 2.15681 130.217
6.4233 2.13572 130.211
6.29895 -0.10943 130.488
6.32515 -0.288047 130.509
6.32355 -0.295973 130.507
6.32218 -0.337328 130.516
6.33972 -0.366743 130.514
6.38061 -0.0842828 130.479
6.34778 -0.0974877 130.489
6.37618 -0.085529 130.479
6.35377 -0.359267 130.516
6.325 -0.312753 130.515
6.29149 -0.136456 130.493
6.39258 2.00489 130.232
6.38486 1.99666 130.232
6.31447 -0.329234 130.518
6.31859 -0.35398 130.519
6.3189 -0.372241 130.522
6.35353 -0.0875037 130.487
6.33242 -0.071037 130.482
6.34163 -0.348646 130.518
6.33155 -0.323239 130.517
6.32361 -0.289784 130.511
6.29676 -0.298881 130.512
6.36859 1.96685 130.235
6.30132 -0.286262 130.516
6.30519 -0.288707 130.511
6.30993 -0.372006 130.525
6.31455 -0.0795925 130.491
6.34525 -0.0826129 130.485
6.31044 -0.0836801 130.491
6.32191 -0.324552 130.522
6.3607 1.9863 130.24
6.3413 1.95703 130.241
6.26598 -0.127533 130.499
6.30195 -0.323019 130.521
6.30495 -0.342806 130.521
6.2745 -0.297693 130.521
6.29537 -0.365899 130.526
6.32688 -0.0974793 130.495
6.31601 -0.0849433 130.493
6.30544 -0.101812 130.492
6.31393 -0.324837 130.522
6.30902 -0.330451 130.523
6.30795 -0.308597 130.519
6.30976 -0.338466 130.523
6.29725 -0.10531 130.494
6.28684 -0.101423 130.493
6.2802 -0.296982 130.517
6.30637 -0.362742 130.527
6.3416 -0.358255 130.521
6.38673 2.12348 130.224
6.35654 2.21258 130.208
6.32462 2.19233 130.225
6.33544 1.96056 130.244
6.28743 -0.292749 130.52
6.27818 -0.339985 130.526
6.39023 2.00373 130.235
6.334 1.98809 130.247
6.31929 1.97165 130.246
6.27054 -0.307272 130.525
6.26419 -0.348876 130.532
6.25363 -0.319598 130.524
6.27434 -0.0903143 130.501
6.36031 1.98834 130.246
6.35351 1.9946 130.247
6.34283 1.99564 130.248
6.29547 -0.307022 130.521
6.25146 -0.129835 130.503
6.30141 -0.332428 130.528
6.29306 -0.359136 130.531
6.26969 -0.367173 130.536
6.30447 -0.196427 130.513
6.30479 -0.215797 130.514
6.33887 1.97341 130.245
6.3037 1.96214 130.254
6.29377 1.97742 130.253
6.27394 -0.318655 130.526
6.30147 -0.106294 130.504
6.29867 -0.0846923 130.499
6.30187 -0.107309 130.503
6.38131 1.97095 130.244
6.2976 -0.237416 130.519
6.26286 -0.113788 130.503
6.2502 -0.12678 130.505
6.32194 1.98987 130.253
6.31504 1.96357 130.253
6.25565 -0.328764 130.533
6.25157 -0.349844 130.536
6.25224 -0.362452 130.539
6.25001 -0.300293 130.527
6.24655 -0.338319 130.532
6.24468 -0.350665 130.535
6.2361 -0.339947 130.534
6.28483 -0.244689 130.524
6.28214 -0.238756 130.522
6.3436 2.00425 130.249
6.27752 -0.213504 130.519
6.27726 -0.18005 130.515
6.27952 -0.356204 130.538
6.26779 -0.369054 130.54
6.28979 -0.174328 130.515
6.28879 -0.173287 130.514
6.28124 -0.166675 130.513
6.2908 -0.205211 130.515
6.28837 -0.178173 130.513
6.34755 2.11775 130.236
6.31546 2.21246 130.222
6.33877 2.1535 130.23
6.25091 -0.311189 130.532
6.24034 -0.302506 130.53
6.23659 -0.348023 130.537
6.23118 -0.33244 130.535
6.23224 -0.357437 130.538
6.27693 -0.0757228 130.502
6.26567 -0.0791394 130.504
6.26679 -0.242216 130.529
6.26755 -0.24606 130.528
6.26535 -0.108444 130.503
6.19557 -0.140531 130.525
6.33316 2.01345 130.252
6.32658 2.01413 130.252
6.33442 1.98504 130.256
6.26735 1.98008 130.259
6.23193 -0.298762 130.534
6.22266 -0.353043 130.54
6.22018 -0.340236 130.539
6.25302 -0.0700184 130.512
6.32067 2.01706 130.254
6.2324 -0.100417 130.512
6.31442 1.9999 130.255
6.30697 1.9753 130.256
6.25833 -0.220735 130.526
6.23585 -0.318998 130.531
6.23163 -0.373849 130.547
6.26697 -0.175741 130.519
6.22777 -0.313005 130.538
6.23146 -0.343178 130.541
6.21725 -0.303626 130.534
6.21052 -0.0862028 130.519
6.30793 2.00501 130.26
6.2485 -0.23079 130.533
6.2496 -0.191234 130.527
6.25557 -0.202858 130.525
6.25171 -0.234792 130.53
6.22264 -0.12675 130.516
6.30099 2.00264 130.261
6.28598 1.98646 130.264
6.28343 1.97873 130.261
6.28106 1.97149 130.259
6.20775 -0.292253 130.54
6.21197 -0.0491897 130.518
6.21662 -0.351044 130.546
6.21888 -0.380599 130.554
6.29594 2.12625 130.249
6.28463 2.17666 130.241
6.25998 2.20101 130.242
6.2033 -0.123849 130.521
6.19356 -0.287099 130.539
6.23227 -0.0555964 130.514
6.29487 2.00925 130.264
6.23825 -0.210562 130.533
6.26011 1.98712 130.27
6.24205 -0.234023 130.534
6.18877 -0.141947 130.527
6.19511 -0.285863 130.541
6.18113 -0.28827 130.543
6.17589 -0.266194 130.54
6.19324 -0.326485 130.551
6.23027 -0.0639279 130.513
6.19804 -0.101418 130.521
6.17634 -0.127796 130.526
6.25099 1.98411 130.263
6.18562 -0.385265 130.557
6.204 -0.385508 130.555
6.23386 -0.369842 130.552
6.18603 -0.291897 130.546
6.21023 -0.365843 130.55
6.198 -0.043283 130.521
6.27739 2.0099 130.268
6.23579 1.98073 130.276
6.22938 1.99262 130.269
6.16418 -0.291008 130.548
6.14874 -0.263892 130.548
6.17591 -0.315289 130.553
6.17765 -0.338246 130.556
6.15911 -0.303375 130.552
6.23858 1.97996 130.27
6.17912 -0.131761 130.529
6.2026 1.99516 130.274
6.14748 -0.119366 130.533
6.17782 -0.395931 130.564
6.17523 -0.392764 130.562
6.24158 2.21311 130.245
6.15361 -0.333078 130.56
6.26268 2.01548 130.272
6.23854 2.00176 130.276
6.19421 -0.0565145 130.528
6.16695 -0.0703949 130.53
6.17199 -0.108314 130.528
6.16319 -0.122704 130.53
6.14507 -0.300044 130.555
6.1264 -0.355019 130.564
6.14703 -0.356734 130.558
6.18108 -0.0291431 130.525
6.17133 -0.0253926 130.525
6.19017 -0.04201 130.525
6.19375 -0.0534247 130.522
6.17077 -0.0853435 130.53
6.17262 -0.0975221 130.528
6.22884 1.97837 130.275
6.20398 1.99883 130.276
6.19041 -0.278855 130.555
6.19133 -0.367808 130.564
6.18624 -0.379997 130.565
6.18005 -0.391778 130.566
6.16401 -0.037463 130.528
6.18414 -0.254831 130.554
6.1809 -0.261671 130.555
6.1375 -0.103717 130.535
6.11728 -0.279787 130.56
6.16126 -0.366473 130.562
6.13724 -0.381962 130.571
6.149 -0.348947 130.563
6.15835 -0.248117 130.558
6.13058 -0.102335 130.537
6.2094 2.01146 130.285
6.18563 1.99255 130.284
6.12717 -0.294296 130.56
6.12719 -0.34877 130.568
6.11027 -0.341215 130.567
6.16498 -0.268048 130.559
6.1654 -0.300975 130.564
6.14148 -0.39309 130.578
6.13484 -0.397704 130.577
6.10192 -0.394143 130.585
6.16131 -0.0271067 130.531
6.19714 2.12948 130.277
6.19591 2.16666 130.269
6.18459 2.19916 130.264
6.18051 2.02955 130.276
6.18301 2.00233 130.28
6.17609 2.0091 130.28
6.14978 -0.0199419 130.531
6.15057 -0.246578 130.561
6.12337 -0.0747293 130.541
6.13654 -0.0933345 130.538
6.09815 -0.298807 130.57
6.19942 1.99641 130.287
6.09502 -0.34677 130.573
6.10767 -0.377143 130.573
6.16788 1.99218 130.29
6.13477 -0.0264601 130.535
6.14623 -0.266939 130.564
6.1299 -0.0397689 130.537
6.11573 -0.10588 130.544
6.0986 -0.111809 130.548
6.09472 -0.0989845 130.544
6.08725 -0.275887 130.566
6.09377 -0.38104 130.584
6.11836 -0.329331 130.567
6.10845 -0.384895 130.572
6.15999 -0.0545626 130.537
6.14782 -0.28114 130.566
6.12614 -0.371731 130.583
6.18411 2.00402 130.292
6.18912 1.9949 130.288
6.13925 -0.270661 130.568
6.0827 -0.3573 130.577
6.08291 -0.374239 130.579
6.08275 -0.367329 130.577
6.20931 2.01701 130.286
6.07886 -0.355852 130.577
6.15531 1.9873 130.305
6.15151 2.00135 130.295
6.15822 2.008 130.288
6.13932 1.99827 130.292
6.10396 -0.0463825 130.545
6.10417 -0.100446 130.548
6.09006 -0.109693 130.552
6.07215 -0.287059 130.572
6.08351 -0.29917 130.574
6.09347 -0.344907 130.578
6.09134 -0.327494 130.575
6.10911 -0.378733 130.587
6.09919 -0.392824 130.588
6.11563 -0.0348444 130.544
6.1452 2.24156 130.263
6.18982 2.22485 130.255
6.1653 1.99694 130.296
6.14661 2.00949 130.292
6.07411 -0.330211 130.579
6.08962 -0.286643 130.57
6.14328 1.99067 130.304
6.04843 -0.304077 130.58
6.06099 -0.103363 130.556
6.05978 -0.303092 130.579
6.05224 -0.322631 130.583
6.07201 -0.389048 130.593
6.07579 -0.384023 130.589
6.06867 -0.359306 130.586
6.1203 -0.0446157 130.545
6.07282 -0.049547 130.556
6.10403 2.0067 130.304
6.03484 -0.350395 130.591
6.07063 -0.087883 130.556
6.03938 -0.0962758 130.563
6.14212 2.00049 130.3
6.07004 -0.061442 130.555
6.08119 -0.370862 130.594
6.07361 -0.384232 130.595
6.05699 -0.379758 130.594
6.08453 -0.0634703 130.559
6.05285 -0.106763 130.556
6.14258 2.12581 130.293
6.11811 2.15762 130.293
6.13481 2.20039 130.278
6.08037 2.23147 130.284
6.08087 2.00659 130.309
6.04552 -0.0676009 130.563
6.04384 -0.363902 130.593
6.0418 -0.0876649 130.564
6.11567 1.97406 130.315
6.02466 -0.361675 130.597
6.02899 -0.335206 130.589
6.0487 -0.350198 130.602
6.06651 -0.052711 130.557
6.02574 -0.0105221 130.552
6.03516 -0.108916 130.564
6.0134 -0.12942 130.571
6.04178 -0.37271 130.602
6.02287 -0.368738 130.603
6.03485 -0.371411 130.599
6.0938 2.00291 130.311
6.05366 1.99451 130.316
5.9893 -0.343975 130.601
6.08202 1.98017 130.32
6.0046 -0.36063 130.602
6.05845 -0.0633051 130.564
6.02381 -0.0770732 130.568
6.00558 -0.00779253 130.559
5.99902 -0.0263803 130.562
6.01421 -0.100254 130.571
6.06524 2.00742 130.316
6.06529 1.96032 130.33
6.04985 2.00121 130.323
5.98847 -0.129528 130.581
5.97352 -0.146597 130.585
5.9673 -0.151627 130.586
5.99947 -0.345328 130.611
6.01689 -0.0718489 130.572
5.98776 -0.354896 130.607
6.01419 -0.0939097 130.58
6.03049 -0.0679121 130.57
5.97703 -0.346708 130.606
5.99616 -0.0794897 130.576
5.99356 -0.025065 130.566
5.98995 -0.0162286 130.566
5.98636 -0.0440863 130.57
5.9842 -0.0416329 130.569
5.99608 -0.100553 130.576
6.05096 1.96 130.331
6.03208 1.98923 130.33
6.06579 1.95946 130.334
5.96402 -0.122876 130.588
5.98317 -0.34939 130.611
5.99169 -0.0899523 130.583
5.95972 -0.341942 130.612
5.98232 -0.0706174 130.579
5.97431 -0.0228896 130.572
5.96819 -0.00807417 130.571
5.97652 -0.0421057 130.575
5.97847 -0.0607501 130.577
5.96913 -0.0612847 130.578
5.97912 -0.0822709 130.579
5.97595 -0.10135 130.582
5.94812 -0.156489 130.59
5.99431 -0.075993 130.577
6.03673 2.17081 130.313
5.99798 1.99481 130.336
6.01047 1.98562 130.329
6.01132 1.96148 130.346
5.96444 -0.0602937 130.583
5.96142 -0.0360911 130.579
5.95187 -0.0793455 130.585
5.95581 -0.100863 130.588
5.95805 -0.0608984 130.58
5.9401 -0.156255 130.594
5.93826 -0.3348 130.615
6.04075 1.95533 130.335
6.00457 1.98173 130.34
6.00877 1.99042 130.336
5.98955 1.97016 130.349
5.97787 1.9857 130.34
5.93117 -0.0290331 130.586
5.92917 -0.0216187 130.584
5.92248 -0.0164734 130.582
5.94244 -0.0461808 130.586
5.94601 -0.0765285 130.591
5.93662 -0.100066 130.593
5.93505 -0.118683 130.597
5.93072 -0.0754275 130.59
5.92512 -0.0658821 130.588
5.93989 -0.146333 130.596
5.90593 -0.160725 130.603
5.94447 -0.00615086 130.576
5.96442 -0.145426 130.602
6.02133 2.2024 130.309
5.95841 -0.116793 130.596
6.05624 2.13545 130.315
5.96533 -0.303926 130.617
5.94417 -0.314301 130.619
5.9161 -0.321821 130.619
5.97294 -0.0905012 130.587
5.99761 2.21757 130.311
6.03699 2.23436 130.293
5.96853 1.9947 130.349
5.98565 1.99589 130.34
5.92481 -0.0975034 130.598
5.91763 -0.0766513 130.597
5.91661 -0.095958 130.598
5.91103 -0.0836674 130.596
5.90491 -0.0669014 130.594
5.90099 -0.0444743 130.592
5.93157 -0.114943 130.6
5.91929 -0.128321 130.606
5.91758 -0.142755 130.604
5.94142 -0.0939948 130.594
5.98058 1.97535 130.356
5.98733 1.97408 130.351
5.97516 1.99182 130.348
5.95684 2.00334 130.348
5.93544 1.97526 130.351
5.89515 -0.0810615 130.603
5.89787 -0.0563558 130.599
5.89222 -0.049588 130.598
5.88578 -0.0608468 130.599
5.88861 -0.0812493 130.601
5.8925 -0.0868282 130.602
5.89631 -0.152467 130.611
5.87632 -0.16654 130.611
5.89085 -0.238224 130.624
5.89944 -0.277306 130.622
5.86264 -0.227936 130.622
5.88211 -0.167269 130.612
5.891 -0.285194 130.623
5.93254 -0.145024 130.611
5.92071 -0.137822 130.61
5.95093 2.1587 130.34
5.92249 -0.248668 130.623
5.91596 -0.265069 130.623
5.92677 -0.0616584 130.593
5.97384 1.99781 130.353
5.9689 1.99948 130.352
5.9539 2.00755 130.353
5.92045 1.99807 130.355
5.94 1.99392 130.356
5.8865 -0.167783 130.621
5.87192 -0.176946 130.62
5.86904 -0.174525 130.619
5.88254 -0.218783 130.625
5.86945 -0.218075 130.624
5.86025 -0.169485 130.618
5.87764 -0.0798728 130.606
5.89668 -0.151821 130.615
5.95281 2.00933 130.355
5.92701 1.999 130.356
5.91164 2.006 130.359
5.90029 1.98729 130.359
5.96857 1.98649 130.357
5.9447 2.02062 130.359
5.92235 2.01548 130.362
5.92656 1.98932 130.359
5.86292 -0.0926862 130.614
5.85801 -0.0774413 130.613
5.86101 -0.112604 130.617
5.84461 -0.10225 130.615
5.86676 -0.102611 130.613
5.84933 -0.121356 130.618
5.85249 -0.178035 130.625
5.85159 -0.199515 130.627
5.84742 -0.159817 130.622
5.83891 -0.13569 130.619
5.84056 -0.206661 130.628
5.86891 -0.0793191 130.609
5.85036 -0.0803669 130.612
5.85724 -0.100935 130.613
5.88338 -0.170532 130.619
5.88054 -0.189753 130.626
5.87773 -0.19423 130.624
5.86727 -0.197535 130.624
5.88491 -0.146998 130.622
5.9526 2.18963 130.332
5.90293 2.20642 130.341
5.88428 -0.212387 130.631
5.8997 -0.225852 130.628
5.89527 -0.230842 130.626
5.88924 -0.0683281 130.601
5.93989 2.0257 130.359
5.9202 2.0235 130.363
5.91302 2.01141 130.363
5.90946 1.99208 130.364
5.89638 2.01775 130.363
5.89488 2.01194 130.366
5.84509 -0.0902233 130.62
5.84536 -0.113441 130.623
5.83306 -0.0758694 130.62
5.8287 -0.078007 130.618
5.84276 -0.133841 130.625
5.84299 -0.141087 130.623
5.83682 -0.156917 130.628
5.83763 -0.175976 130.63
5.83778 -0.188168 130.632
5.84287 -0.136831 130.62
5.82733 -0.104308 130.619
5.90139 2.03423 130.365
5.82567 -0.196803 130.635
5.90559 2.01253 130.371
5.9048 2.02908 130.367
5.82062 -0.199281 130.633
5.87548 2.02337 130.368
5.88843 2.00998 130.363
5.81931 -0.189474 130.638
5.82316 -0.0916927 130.626
5.82618 -0.13234 130.631
5.82866 -0.153118 130.633
5.82702 -0.172648 130.635
5.82205 -0.183126 130.638
5.90681 2.14863 130.356
5.86103 -0.183962 130.634
5.80645 -0.184995 130.641
5.78369 -0.164511 130.637
5.8875 2.03827 130.368
5.87937 2.02372 130.369
5.89722 2.01347 130.372
5.87855 2.03268 130.372
5.84593 1.99232 130.373
5.82539 -0.111122 130.629
5.78248 -0.0785267 130.633
5.77983 -0.0806203 130.632
5.75657 -0.0992709 130.638
5.79289 -0.169531 130.646
5.81184 -0.142747 130.636
5.78447 -0.176834 130.647
5.78661 -0.169047 130.641
5.8538 2.03015 130.378
5.77324 -0.164403 130.644
5.84486 2.01879 130.376
5.81255 2.01689 130.384
5.79232 -0.0887577 130.634
5.7845 -0.131936 130.642
5.75938 -0.162956 130.645
5.887 2.17478 130.355
5.81969 2.19036 130.369
5.82756 2.2163 130.355
5.85416 2.00699 130.385
5.83469 2.02597 130.383
5.8344 2.02081 130.381
5.7914 1.99954 130.39
5.77593 -0.180954 130.652
5.76915 -0.154728 130.647
5.81945 2.02566 130.39
5.85247 2.00705 130.384
5.76072 -0.187943 130.656
5.75926 -0.160306 130.651
5.75468 -0.16789 130.65
5.77909 -0.266439 130.664
5.75051 -0.0953573 130.645
5.75973 -0.116659 130.646
5.73525 -0.102058 130.645
5.77979 -0.146464 130.646
5.76569 -0.170003 130.655
5.77785 -0.244752 130.661
5.75197 -0.178947 130.655
5.75658 -0.252043 130.665
5.7596 -0.276187 130.669
5.76999 -0.248945 130.662
5.79693 2.02266 130.392
5.78818 2.01958 130.392
5.74363 -0.207824 130.663
5.72821 -0.202653 130.664
5.72731 -0.191516 130.658
5.7275 -0.191031 130.66
5.74332 -0.0915085 130.645
5.73677 -0.0966212 130.645
5.74627 -0.16542 130.66
5.74928 -0.202667 130.663
5.75607 -0.228092 130.665
5.75179 -0.220687 130.664
5.76229 -0.261901 130.67
5.74636 -0.228378 130.665
5.81896 2.17328 130.374
5.83394 2.20663 130.359
5.78679 2.20489 130.369
5.82071 2.02227 130.395
5.82739 2.01869 130.392
5.70837 -0.183857 130.661
5.7617 -0.281675 130.671
5.78251 2.02491 130.4
5.76869 1.99644 130.397
5.75103 1.98563 130.403
5.7298 -0.131804 130.657
5.71004 -0.191155 130.665
5.70332 -0.104645 130.655
5.73643 -0.261468 130.678
5.75309 -0.245185 130.671
5.75007 -0.147253 130.656
5.73239 -0.18745 130.667
5.73432 -0.205391 130.668
5.76082 2.01233 130.406
5.7043 -0.125388 130.663
5.71799 -0.257503 130.676
5.72106 -0.287629 130.682
5.69824 -0.184346 130.664
5.71687 -0.215562 130.669
5.68131 -0.196781 130.67
