ply
format ascii 1.0
comment Created by Open3D
element vertex 1894
property double x
property double y
property double z
end_header
-24.8558 1.87158 11.1306
-20.2448 -0.147812 10.4046
-29.5276 1.88031 11.9284
-19.5624 -0.53552 10.2998
-20.2265 -0.442005 10.4104
-19.6557 -0.580546 10.3172
-20.3153 -0.494488 10.4272
-19.9021 -0.601106 10.3599
-24.2031 -0.433511 11.0895
-31.1654 -3.68728 12.3781
-20.5675 -2.53466 10.5326
-25.1631 -3.99326 11.3621
-23.7314 -4.06903 11.1199
-23.0212 -4.27832 11.005
-18.9636 -4.3242 10.3132
-20.058 5.64477 10.1958
-18.9931 3.57518 10.0771
-19.3331 3.78419 10.1288
-19.2377 3.50271 10.1211
-21.1314 5.76046 10.3756
-19.3013 3.49952 10.132
-21.3536 5.00955 10.4365
-20.4165 3.54546 10.3211
-23.6102 5.78513 10.7983
-18.8153 1.48775 10.1104
-25.5677 5.62287 11.1377
-20.3458 1.84431 10.361
-27.0669 5.82847 11.3875
-24.8483 3.93317 11.0664
-29.5814 6.0766 11.8094
-21.8417 1.35842 10.6314
-24.7555 1.84338 11.1143
-19.1904 -0.590063 10.238
-19.4993 -0.5836 10.2905
-19.251 -0.65674 10.2503
-22.4213 -0.531784 10.7881
-24.2547 -0.484217 11.0998
-30.6389 -0.120477 12.1793
-23.9184 -0.821397 11.0527
-21.286 -2.47693 10.6536
-28.2146 -3.80856 11.8778
-26.403 -3.88405 11.5706
-20.8232 -2.74655 10.5827
-18.9317 -2.5949 10.255
-23.3549 -4.24447 11.0609
-22.5613 -4.1482 10.9224
-20.7336 -4.27975 10.6142
-18.9142 -4.42967 10.308
-18.2762 -4.38519 10.1977
-18.6173 6.15322 9.93418
-18.919 5.89324 9.99365
-18.3981 3.47735 9.97843
-18.76 3.55674 10.0378
-20.8419 6.17005 10.3137
-21.2037 5.84134 10.3855
-21.2487 5.69572 10.3976
-19.5344 3.60364 10.1687
-19.3944 3.20266 10.157
-20.1553 3.65856 10.2731
-23.6587 5.82198 10.8055
-18.7411 1.62323 10.0936
-24.0989 6.01196 10.8749
-18.7725 1.56622 10.1007
-28.4738 5.9971 11.6226
-20.9061 1.5798 10.4648
-27.0136 3.94883 11.4358
-23.387 1.8478 10.8804
-24.1391 2.00206 11.0042
-25.2037 2.09834 11.1831
-32.1833 4.43019 12.3042
-26.2437 2.12339 11.36
-28.3858 2.23132 11.7226
-29.8433 2.20267 11.9724
-19.3302 -0.535807 10.2602
-19.6677 -0.569048 10.3189
-19.489 -0.62604 10.2901
-20.304 -0.508673 10.4257
-20.3747 -0.57359 10.4398
-23.4824 -2.40977 11.0267
-21.3875 -2.51766 10.6721
-26.6447 -3.55889 11.602
-19.8352 -2.52726 10.4073
-20.4504 -2.75043 10.5192
-25.0106 -4.03057 11.3372
-20.1352 -2.82079 10.4675
-18.7666 6.03963 9.96316
-18.8632 5.99233 9.9811
-18.9702 3.64932 10.0709
-19.3564 3.62263 10.1377
-19.6958 3.64397 10.195
-21.3424 5.38537 10.4231
-19.7734 3.59653 10.2097
-19.9013 3.48602 10.235
-18.4561 1.99611 10.0336
-20.492 3.66783 10.3303
-18.7996 1.50896 10.1071
-19.509 1.62611 10.2247
-23.7707 4.01914 10.8797
-20.6699 1.69821 10.4208
-20.914 1.71954 10.4619
-24.9857 3.80665 11.0937
-21.9274 1.94076 10.6282
-31.1432 6.26238 12.0705
-25.7596 2.16158 11.2761
-18.8132 -0.42794 10.1686
-19.0299 -0.424673 10.2055
-18.8275 -0.557574 10.175
-18.8941 -0.592915 10.1874
-19.3242 -0.531872 10.2591
-19.3826 -0.59925 10.2711
-25.424 -2.3059 11.3552
-23.6784 -2.22372 11.0545
-24.2652 -2.39698 11.16
-21.162 -2.53983 10.6343
-20.853 -2.62401 10.5841
-19.7912 -2.7013 10.405
-19.4453 -2.64804 10.3443
-19.9281 -2.81254 10.4318
-19.1607 -2.62687 10.2951
-18.6629 -2.55775 10.2079
-22.8889 -4.08239 10.9764
-23.2014 -4.29694 11.0363
-22.0844 -4.0774 10.8388
-19.8203 -4.38296 10.4614
-18.4527 3.47549 9.98783
-18.7973 3.59541 10.043
-20.0433 5.20931 10.2066
-21.1987 5.46652 10.3961
-19.4119 3.27299 10.1579
-18.4281 1.59117 10.0411
-18.9006 1.6886 10.1189
-19.3829 1.65075 10.2024
-22.9632 3.86364 10.7465
-26.1553 5.87174 11.2304
-26.5016 5.89703 11.2888
-19.4206 1.33228 10.2186
-23.8722 3.96912 10.8985
-20.351 1.77157 10.3641
-27.7526 5.97372 11.5002
-20.5603 1.68342 10.4026
-21.0563 1.67581 10.4875
-27.1708 3.98359 11.4615
-18.6724 -0.456758 10.1454
-18.7971 -0.477807 10.1674
-19.3696 -0.563117 10.2678
-19.8175 -0.531289 10.3433
-20.3766 -0.468917 10.4369
-20.3806 -0.54038 10.4398
-23.4566 -2.35597 11.0206
-21.419 -2.48521 10.6765
-20.8872 -2.51926 10.5867
-20.3775 -2.54891 10.5006
-19.9862 -2.58037 10.4347
-19.1696 -2.60026 10.2958
-18.8529 -2.56243 10.2405
-19.298 -2.71362 10.3212
-22.575 -4.13521 10.9244
-21.8535 -4.1387 10.8012
-20.8383 -4.25621 10.6314
-20.0717 -4.25586 10.5004
-18.4936 -4.36496 10.2342
-18.2582 -4.37035 10.1941
-19.8553 5.82301 10.1557
-18.4905 3.4613 9.99472
-19.2326 3.65364 10.1156
-21.5653 5.45247 10.4592
-21.8748 5.53956 10.5094
-20.2258 3.62415 10.2862
-20.2897 3.55547 10.2992
-18.4659 1.54428 10.049
-18.8689 1.56491 10.1173
-19.34 1.84895 10.1891
-26.3727 5.76363 11.2709
-23.6341 3.93978 10.8587
-28.185 6.06791 11.5712
-24.7422 4.01474 11.0457
-20.8948 1.62416 10.4615
-24.1326 2.01795 11.0026
-18.6993 -0.558623 10.1531
-18.9 -0.610599 10.189
-19.3146 -0.557489 10.2582
-26.5426 -0.113458 11.4793
-24.3589 -0.427271 11.1159
-22.285 -2.45053 10.8234
-19.4365 -2.59152 10.3411
-23.2436 -3.97726 11.0338
-21.0053 -4.18321 10.6577
-20.0281 -4.19147 10.491
-18.8571 -4.38609 10.2969
-18.3473 3.4281 9.97126
-20.2936 5.54202 10.2392
-18.9084 3.59832 10.0619
-19.2508 3.58928 10.1207
-21.0904 5.32578 10.3819
-19.345 3.22928 10.1478
-20.0987 3.6065 10.265
-20.2008 3.57981 10.2833
-18.563 1.73188 10.0599
-18.449 1.5226 10.0468
-18.6497 1.55645 10.0801
-18.8096 1.59081 10.1063
-19.3686 1.86712 10.1934
-19.3534 1.76017 10.1941
-23.7921 3.57383 10.8969
-20.8621 1.68451 10.4541
-21.6239 1.99316 10.5748
-26.5815 4.09035 11.3576
-21.7308 1.77263 10.5998
-26.7067 3.96499 11.3828
-22.0618 1.6903 10.6588
-22.3518 1.71346 10.7077
-23.056 1.76483 10.8264
-24.7627 1.99303 11.111
-24.7125 1.8273 11.1075
-18.6456 -0.320919 10.1367
-18.5767 -0.398205 10.1273
-18.6796 -0.545183 10.1493
-20.3123 -0.503247 10.427
-20.2819 -0.58816 10.4244
-23.5475 -2.41987 11.0381
-20.6866 -2.63968 10.5561
-19.9878 -2.62225 10.4362
-19.887 -2.66488 10.4203
-20.0071 -2.7598 10.4437
-18.8622 -2.56343 10.2421
-23.1862 -4.0491 11.0262
-22.4816 -4.11004 10.9077
-21.4517 -4.17843 10.7338
-20.9944 -4.13343 10.6543
-18.0523 3.3233 9.92408
-18.4802 3.48067 9.99236
-20.4078 5.60356 10.2568
-21.2091 5.75831 10.389
-19.3255 3.25453 10.1437
-20.1881 3.55001 10.282
-20.5318 3.58629 10.3396
-23.5546 5.79519 10.7885
-18.7111 1.64853 10.0877
-22.0752 3.85287 10.5951
-22.7442 3.8707 10.7088
-20.1448 1.73354 10.3301
-27.2326 5.89745 11.4137
-24.041 3.88144 10.93
-24.5579 3.78693 11.0212
-29.7443 6.2494 11.832
-21.2174 1.61684 10.5168
-26.6883 4.14283 11.3743
-21.739 1.76377 10.6015
-26.6558 3.93889 11.3749
-22.3501 1.70472 10.7076
-23.0768 1.76829 10.8298
-23.9621 1.98497 10.9745
-24.5508 2.05412 11.0729
-25.9056 2.39372 11.294
-26.0391 2.11664 11.3252
-18.8676 -0.209893 10.1712
-27.3488 2.17792 11.5471
-18.614 -0.479008 10.1361
-20.1659 -0.185456 10.3923
-18.8933 -0.505989 10.1847
-19.4448 -0.586543 10.2813
-20.2787 -0.526745 10.4219
-21.6914 -0.561737 10.6643
-24.0983 -0.426888 11.0714
-20.0255 -2.63156 10.4429
-20.0125 -2.77162 10.445
-19.3536 -2.62466 10.328
-19.8091 -2.84657 10.4125
-22.9234 -4.30386 10.989
-18.2599 -4.3668 10.1943
-18.26 3.3066 9.96006
-18.7268 3.58492 10.0313
-19.0035 3.49391 10.0814
-19.2199 3.51643 10.1176
-19.2412 3.34117 10.1266
-21.0586 5.44445 10.3728
-19.5998 3.61724 10.1794
-21.377 5.41417 10.4282
-22.8043 6.18574 10.6484
-18.602 1.73059 10.0666
-18.7168 1.68113 10.0877
-27.4911 5.8006 11.4608
-29.347 6.37212 11.7604
-23.8459 2.04096 10.9529
-28.952 4.00039 11.7653
-24.7947 1.90216 11.1192
-26.2489 2.24615 11.3571
-18.6905 -0.354542 10.1454
-18.9204 -0.629913 10.1931
-19.3298 -0.575001 10.2613
-19.4889 -0.603375 10.2894
-24.0206 -0.51495 11.0608
-21.2455 -2.50706 10.6476
-26.5392 -3.54351 11.5835
-20.7076 -2.53281 10.5565
-18.9595 -2.79817 10.2659
-19.8818 6.2234 10.148
-18.3901 3.44067 9.97819
-18.4451 3.38195 9.98938
-20.2198 5.55859 10.2261
-18.9283 3.66387 10.0633
-21.1592 5.79159 10.3794
-19.3894 3.53215 10.1461
-19.5338 3.36607 10.1758
-21.5807 5.48226 10.4609
-20.2017 3.71095 10.2794
-20.3125 3.5524 10.3032
-18.908 1.67041 10.1207
-24.193 5.94874 10.8929
-22.9506 3.84257 10.7449
-26.2859 5.99175 11.2491
-27.447 5.82299 11.4526
-20.5961 1.66533 10.4092
-20.9995 1.56282 10.4813
-22.0108 1.70895 10.6496
-27.095 3.87945 11.4518
-28.3534 4.00752 11.6628
-18.7073 -0.518434 10.1533
-19.1925 -0.543468 10.2369
-19.1621 -0.615451 10.2339
-19.4577 -0.608113 10.2842
-20.2545 -0.477123 10.4163
-19.2411 -0.674902 10.2492
-20.9185 -0.418157 10.5279
-24.2367 -0.459647 11.096
-26.8083 -0.242007 11.5286
-22.8734 -2.53934 10.9266
-21.1765 -2.59582 10.6385
-20.0478 -2.65407 10.4474
-19.7179 -2.69658 10.3924
-19.4338 -2.66412 10.3429
-23.9928 -3.98107 11.1618
-19.4208 -2.72152 10.3424
-18.8945 -2.59412 10.2486
-18.8615 -2.6759 10.2455
-22.8096 -4.11507 10.9638
-22.1456 -4.15924 10.8518
-18.9105 -4.40113 10.3065
-19.1982 3.49847 10.1145
-21.0934 5.29506 10.3834
-19.7334 3.51501 10.2054
-19.9061 3.46058 10.2365
-20.4895 3.64659 10.3305
-22.867 5.55525 10.6784
-19.5326 1.8252 10.2227
-19.4097 1.51683 10.2111
-25.5738 5.77686 11.134
-22.8411 3.75996 10.7288
-20.2979 1.76456 10.3553
-20.5826 1.61765 10.4084
-28.6749 6.03808 11.6558
-24.8732 3.81291 11.0743
-29.1103 6.04929 11.7298
-21.7468 2.01078 10.5953
-25.0839 3.76395 11.1118
-22.4153 1.71037 10.7186
-22.6164 1.6904 10.7536
-20.386 -0.232662 10.4313
-19.2664 -0.622614 10.2519
-19.4535 -0.641929 10.2845
-20.3977 -0.556519 10.4432
-21.4712 -0.470875 10.6239
-21.5329 -0.539025 10.6366
-26.7271 -0.1987 11.5134
-24.0973 -0.56418 11.0754
-23.6356 -2.42821 11.0534
-23.7119 -2.55161 11.0702
-26.6377 -3.93822 11.6124
-19.4951 -2.65424 10.353
-24.5495 -4.08659 11.2602
-19.0911 -2.63428 10.2834
-23.025 -4.07852 10.9995
-20.9427 -4.34463 10.6519
-20.2978 5.48215 10.2417
-19.0884 3.70866 10.0893
-20.4198 5.46379 10.2631
-19.3004 3.57997 10.1294
-19.3952 3.56671 10.146
-19.3855 3.40678 10.1493
-21.1003 5.4349 10.3803
-22.0416 5.40146 10.5421
-22.0743 4.88561 10.5634
-18.9479 1.65943 10.1279
-24.1317 5.86509 10.885
-19.4967 1.79939 10.2173
-19.3794 1.58656 10.2038
-27.0405 5.73374 11.3858
-20.7056 1.75012 10.4253
-20.6832 1.63599 10.425
-20.9411 1.67448 10.4679
-21.1628 1.70729 10.5047
-21.6022 1.88389 10.5744
-27.0996 3.97706 11.4496
-22.1458 1.67951 10.6735
-22.4834 1.70503 10.7304
-26.161 2.00073 11.3496
-19.1708 -0.346873 10.2272
-30.259 2.13231 12.0456
-31.1236 2.1256 12.1935
-24.3395 -0.453473 11.1134
-23.7255 -2.40608 11.0681
-28.9506 -3.88421 12.0058
-20.8952 -2.62697 10.5914
-20.8307 -2.73935 10.5838
-25.7843 -4.01049 11.4688
-20.8904 -4.34492 10.643
-18.9556 -4.39124 10.3139
-18.9236 -4.44664 10.3101
-18.6301 6.20067 9.93491
-18.7273 3.47159 10.0349
-18.9844 3.5255 10.0771
-21.1155 5.28732 10.3874
-21.3881 5.34204 10.4323
-20.3383 3.555 10.3075
-23.8808 5.95983 10.8392
-19.5375 1.68702 10.2277
-22.824 3.78836 10.725
-25.6042 5.62023 11.144
-21.8143 1.99013 10.6074
-24.0302 1.99117 10.9859
-29.1587 3.95937 11.8019
-26.2125 2.02928 11.3575
-33.8676 4.38174 12.5933
-26.6836 2.02256 11.4382
-29.6318 1.88628 11.946
-33.9608 2.65704 12.6619
-19.363 -0.627325 10.2686
-20.4086 -0.68671 10.449
-24.2093 -0.461205 11.0914
-31.6946 -3.68514 12.4685
-22.291 -2.5314 10.8269
-26.6408 -3.56332 11.6014
-28.0041 -3.98297 11.8471
-20.4413 -2.63322 10.514
-25.58 -3.95741 11.4323
-19.9119 -2.78637 10.4283
-19.5555 -2.74502 10.3661
-23.5139 -4.06704 11.0827
-18.8913 5.91484 9.98827
-20.8801 6.04212 10.3241
-19.3288 3.58686 10.1341
-21.2222 5.80581 10.3898
-19.7616 3.46774 10.2117
-20.361 1.70725 10.3678
-20.7044 1.74613 10.4253
-24.0335 3.63442 10.9363
-28.1547 5.93249 11.5701
-20.9422 1.67334 10.4681
-21.6039 1.72561 10.5795
-21.6665 1.65306 10.5925
-22.015 1.59294 10.6538
-21.8514 1.40537 10.6316
-28.5002 2.383 11.7375
-31.0179 2.1055 12.176
-19.6976 -0.602966 10.325
-20.326 -0.582811 10.4317
-21.4978 -0.496282 10.6293
-21.5599 -0.563707 10.6419
-24.0519 -0.589223 11.0684
-33.5746 0.153233 12.6724
-24.0562 -0.70852 11.0728
-21.3368 -2.52195 10.6636
-20.7847 -2.53896 10.5698
-20.9085 -2.69064 10.5956
-20.7917 -2.74076 10.5772
-24.0025 -3.94327 11.1624
-23.3139 -3.86995 11.0425
-23.5705 -4.07291 11.0925
-19.3357 -2.76049 10.3291
-20.8238 -4.28036 10.6297
-20.0105 -4.28762 10.491
-18.8769 -4.44947 10.3022
-19.5554 6.18982 10.0933
-19.1328 3.73583 10.0961
-20.9539 5.93421 10.34
-19.2218 3.51232 10.1181
-19.3241 3.44197 10.1377
-19.4588 3.48442 10.1594
-21.1215 5.4438 10.3836
-23.0771 3.8256 10.7671
-26.8262 5.83445 11.3462
-23.8386 3.84608 10.8965
-29.0132 6.09905 11.7117
-25.0062 3.78432 11.0979
-21.8945 1.71556 10.6295
-23.1041 1.71587 10.8361
-27.4193 2.18576 11.5589
-19.4477 -0.580569 10.2816
-19.8451 -0.552143 10.3486
-20.9158 -0.368673 10.5259
-20.2882 -0.527187 10.4236
-22.1842 -0.434936 10.7446
-23.6106 -2.35216 11.0468
-28.2201 -3.74309 11.8767
-20.5911 -2.51461 10.536
-20.634 -2.60013 10.5459
-19.9763 -2.79269 10.4395
-23.3158 -4.14097 11.0511
-18.7805 6.04837 9.96526
-19.6048 6.14641 10.1031
-18.681 3.59798 10.0231
-18.8884 3.63348 10.0574
-20.8722 5.92062 10.3265
-19.7157 3.7611 10.1948
-21.3688 5.47032 10.4251
-20.252 3.64763 10.2899
-19.3831 1.87622 10.1956
-19.4245 1.85001 10.2035
-19.4026 1.38604 10.2139
-25.5069 5.51434 11.1306
-20.3341 1.79242 10.3606
-20.3597 1.71463 10.3673
-27.3127 5.83355 11.4293
-24.6687 3.80852 11.0395
-29.3783 6.32162 11.7672
-29.5978 6.19645 11.8086
-22.5152 1.88032 10.7305
-28.8826 4.01305 11.7531
-26.0211 2.10232 11.3226
-19.5013 -0.457899 10.287
-19.6864 -0.529402 10.3208
-20.3655 -0.598841 10.439
-22.355 -0.432168 10.7737
-23.5025 -2.20484 11.0239
-23.5233 -2.43232 11.0344
-22.3362 -2.42916 10.8315
-21.2546 -2.49638 10.6488
-20.3388 -2.54595 10.4938
-20.9192 -2.70584 10.5979
-20.3445 -2.61234 10.4969
-25.1419 -3.93638 11.3568
-24.1693 -3.95012 11.1911
-19.4268 -2.60675 10.3399
-22.4581 -4.16132 10.9052
-18.8836 -4.4584 10.3037
-18.9099 3.62724 10.0613
-21.1776 5.79592 10.3824
-19.5657 3.67525 10.1718
-20.9974 5.35264 10.3652
-19.6164 3.59699 10.1829
-22.5654 6.02673 10.6125
-22.0438 5.22263 10.5479
-20.5665 3.64406 10.3438
-24.1446 5.94112 10.8848
-19.3149 1.68461 10.1898
-19.3735 1.64748 10.2009
-25.8723 5.76751 11.1853
-19.4251 1.30625 10.2202
-26.1934 5.7839 11.2396
-20.3651 1.80342 10.3656
-20.3214 1.67576 10.362
-22.0063 1.69972 10.6491
-22.7744 1.94393 10.7728
-24.1249 2.01909 11.0012
-25.2017 2.14008 11.1815
-32.0471 4.51542 12.2783
-19.5441 -0.494658 10.2955
-19.4761 -0.56957 10.2862
-20.1815 -0.454632 10.4031
-20.6436 -0.43025 10.4813
-23.4729 -2.29349 11.0215
-22.8499 -2.48615 10.921
-25.5774 -3.88098 11.4295
-24.1086 -3.90511 11.1793
-19.427 -2.5836 10.3393
-19.4107 -2.63762 10.3381
-19.339 -2.72455 10.3285
-18.8734 -4.38091 10.2996
-18.4937 6.16562 9.9127
-19.8589 5.79105 10.1573
-20.175 6.12275 10.2012
-20.844 6.20862 10.3129
-19.2833 3.42322 10.1313
-19.6354 3.64916 10.1845
-19.9642 3.64393 10.2409
-20.0135 3.56123 10.2518
-21.9905 5.50978 10.5301
-24.1621 5.9369 10.888
-19.6213 2.00109 10.2325
-26.2543 5.81596 11.249
-26.4787 5.75691 11.2892
-30.8024 6.07029 12.0182
-23.4716 1.95157 10.8917
-23.9564 2.00842 10.9728
-28.84 2.36436 11.7961
-20.3815 -0.509241 10.439
-20.3359 -0.594726 10.4338
-23.4661 -2.22449 11.0183
-29.0547 -3.7226 12.0186
-21.3198 -2.47233 10.6592
-21.1674 -2.52426 10.6347
-25.5371 -3.92117 11.4238
-23.8993 -3.88052 11.1428
-19.447 -2.59968 10.3432
-20.951 -4.37827 10.6544
-20.1428 6.15444 10.1947
-21.1189 5.96387 10.3673
-19.7071 3.64539 10.1969
-20.2221 3.66965 10.2841
-26.4897 5.76764 11.2907
-26.8751 5.81066 11.3553
-24.8101 3.95939 11.059
-24.7217 3.738 11.0507
-21.9828 1.94419 10.6376
-22.0069 1.67945 10.6498
-22.3551 1.72268 10.708
-23.2345 1.77926 10.8564
-23.987 1.95291 10.9797
-29.6335 4.11935 11.8781
-26.3108 2.04696 11.3738
-37.2474 4.79425 13.1581
-28.7219 2.24808 11.7795
-19.5743 -0.470927 10.2999
-31.242 2.03601 12.2165
-19.7947 -0.511315 10.3388
-34.6091 2.37182 12.7814
-23.8348 -0.249635 11.0209
-23.9196 -0.354064 11.0386
-20.8027 -2.48628 10.5713
-20.7985 -2.68071 10.5765
-23.8891 -3.98515 11.1443
-23.2414 -3.96647 11.033
-22.5326 -4.11845 10.9166
-20.8507 -4.25198 10.6334
-20.6851 -4.24977 10.605
-18.855 -4.45759 10.2988
-20.0497 5.21694 10.2075
-19.318 3.43152 10.137
-19.3558 3.34408 10.1461
-19.7036 3.53543 10.1997
-20.0329 3.55285 10.2554
-22.0868 5.23077 10.555
-25.6552 5.67119 11.1511
-20.3692 1.78659 10.3668
-23.8339 3.79812 10.8972
-20.7221 1.69224 10.4299
-20.9291 1.72942 10.4642
-25.2169 3.9576 11.1286
-23.2372 1.72466 10.8586
-24.133 1.95792 11.0045
-24.5649 1.85506 11.0814
-32.1764 4.37428 12.3047
-25.9954 2.139 11.3171
-30.4159 2.09177 12.0736
-41.2062 2.83682 13.8941
-23.995 -0.157048 11.0455
-23.8555 -0.294974 11.0259
-33.6152 0.19113 12.6782
-33.4638 -3.38613 12.7615
-23.6147 -2.44058 11.0502
-27.7005 -3.70589 11.7868
-25.5297 -3.94724 11.4233
-19.9285 -2.57283 10.4246
-23.9566 -3.98675 11.1558
-23.2554 -3.95315 11.035
-23.2989 -4.08545 11.0465
-21.1518 -4.11386 10.6806
-21.1516 6.03007 10.3709
-19.2723 3.55487 10.1254
-19.644 3.61781 10.187
-19.9624 3.60383 10.2418
-20.2074 3.64233 10.2825
-21.9786 5.49694 10.5284
-22.0412 5.37376 10.5429
-22.1119 5.17291 10.5611
-22.024 4.89809 10.5544
-24.3117 5.89078 10.9149
-26.2281 5.84518 11.2437
-26.4479 5.78509 11.2831
-23.9681 4.06113 10.9121
-28.7654 5.97087 11.6733
-22.6883 1.66079 10.7668
-28.8941 3.98224 11.756
-24.5331 1.85318 11.076
-30.3732 2.1168 12.0656
-20.389 -0.459685 10.4387
-19.9989 -0.569484 10.3754
-20.876 -0.430254 10.521
-21.1856 -0.450278 10.5745
-21.4835 -0.474875 10.6262
-21.5732 -0.542285 10.6435
-24.7858 -0.410887 11.1883
-32.6024 -3.47791 12.6172
-23.8653 -2.45692 11.0935
-27.3969 -3.78179 11.7373
-19.953 -2.70509 10.4328
-23.2114 -4.21323 11.0355
-22.6144 -4.11422 10.9304
-20.222 5.63019 10.2243
-20.2424 5.44602 10.2334
-21.2879 5.40609 10.4132
-19.9537 3.59095 10.2407
-21.5947 5.40628 10.4656
-19.3212 1.68827 10.1907
-25.2187 5.79721 11.0727
-22.9808 3.84301 10.7501
-26.2248 5.87373 11.2422
-20.3761 1.77939 10.3682
-20.4377 1.63151 10.3832
-21.8146 1.98613 10.6076
-21.6112 1.75572 10.5799
-21.9702 1.71752 10.6424
-22.0024 1.62623 10.6506
-27.07 3.92195 11.4462
-24.5881 2.03259 11.0799
-31.1616 2.01917 12.2032
-19.8921 -0.568382 10.3572
-20.3274 -0.538385 10.4306
-21.5819 -0.539094 10.6449
-24.3209 -0.627383 11.1155
-33.45 -3.40418 12.7597
-24.1264 -2.64533 11.1439
-27.617 -3.70909 11.7726
-21.0493 -2.64277 10.6182
-20.9133 -2.68869 10.5964
-20.7445 -2.72344 10.5686
-19.9568 -2.70172 10.4334
-19.5763 -2.74414 10.3697
-23.0068 -4.072 10.9962
-23.1112 -4.27059 11.0201
-18.5108 6.21581 9.91407
-18.8544 6.2044 9.97313
-19.2364 3.56369 10.119
-19.6704 3.57534 10.1928
-21.1279 5.30191 10.389
-21.478 5.3657 10.4469
-19.9838 3.55244 10.247
-22.7167 6.00778 10.6389
-19.6286 1.94518 10.2354
-26.327 5.75357 11.2634
-23.8551 4.00892 10.8944
-24.3626 3.98602 10.9818
-24.2962 3.77972 10.9767
-28.5792 5.92721 11.6428
-21.1443 1.60496 10.5047
-29.7472 6.06526 11.8381
-21.6677 1.6825 10.5918
-30.7952 6.11985 12.0155
-24.8995 1.85892 11.1384
-24.001 -0.182792 11.0473
-30.6725 -0.0692106 12.1835
-33.3521 -0.0592311 12.6409
-24.2805 -2.34632 11.1611
-26.6254 -3.88411 11.6086
-20.344 -2.68591 10.499
-20.0134 -2.76613 10.445
-23.6958 -3.97558 11.111
-22.4323 -4.27079 10.9041
-21.1129 -4.17962 10.676
-19.1879 3.56208 10.1108
-19.3135 3.32673 10.1394
-19.687 3.59382 10.1951
-21.2079 5.31852 10.4022
-20.1159 3.67298 10.2659
-22.1161 5.21287 10.5606
-20.6128 3.56401 10.3541
-25.2278 5.84471 11.0728
-19.5136 1.27987 10.2361
-25.9128 5.68659 11.1947
-20.3704 1.76604 10.3676
-20.3705 1.64641 10.3713
-27.454 5.83009 11.4535
-22.0305 1.64365 10.6549
-22.9661 1.99156 10.8041
-24.1066 1.98804 10.999
-24.9038 1.87294 11.1387
-20.8611 -0.279719 10.5139
-20.3103 -0.508968 10.4268
-22.4967 -0.428143 10.7978
-23.5188 -2.31285 11.0299
-21.3954 -2.43374 10.6709
-27.3792 -3.77088 11.7339
-20.9338 -2.66197 10.599
-19.9876 -2.59246 10.4353
-24.5134 -3.9313 11.2493
-20.0199 -2.7648 10.4461
-20.0864 -2.85352 10.4601
-19.9123 -2.89368 10.4316
-23.3034 -4.11861 11.0483
-23.2114 -4.20174 11.0351
-22.1144 -4.09743 10.8445
-21.1301 -4.3108 10.6829
-20.8538 -4.25044 10.6339
-20.1182 -4.2849 10.5093
-19.8279 -4.40479 10.4633
-18.7101 5.82588 9.96004
-18.8895 6.03523 9.98429
-20.3514 5.56799 10.2483
-19.3021 3.53038 10.1312
-21.0492 5.3085 10.3754
-21.4992 5.41166 10.4491
-23.2537 3.83686 10.7969
-20.483 1.67923 10.3895
-20.7118 1.74384 10.4266
-24.6218 3.76464 11.0328
-29.5721 6.28112 11.8016
-21.9742 1.72884 10.6427
-26.5918 3.93086 11.3643
-30.0085 2.0475 12.0054
-21.5219 -0.460868 10.6323
-22.4813 -0.426777 10.7951
-23.5082 -2.24263 11.026
-20.3312 -2.73755 10.4984
-20.261 -2.78663 10.4879
-20.0333 -2.76833 10.4485
-20.0879 -2.85297 10.4604
-23.1136 -4.15198 11.0169
-21.1941 -4.31556 10.694
-18.8043 6.17298 9.96552
-19.87 5.85782 10.1572
-20.0417 5.36132 10.2017
-18.9668 3.59139 10.0721
-20.3981 5.55898 10.2565
-19.5131 1.63217 10.2252
-19.4395 1.28867 10.2231
-25.607 5.72193 11.1413
-26.0881 5.65764 11.2255
-23.8942 3.87765 10.9051
-21.003 1.64594 10.4793
-21.6059 1.78948 10.5779
-23.2221 1.75996 10.8549
-23.9386 1.93506 10.972
-28.8795 3.91168 11.7556
-24.7948 1.85689 11.1206
-26.1078 2.18394 11.3349
-26.1737 2.04682 11.3504
-33.9213 4.54964 12.5974
-27.4481 2.12105 11.5658
-19.6611 -0.460345 10.3144
-29.6782 1.98813 11.9508
-24.0021 -0.211829 11.0484
-24.1969 -0.425084 11.0881
-29.0687 -0.0585219 11.9092
-23.7206 -2.4278 11.0679
-22.3923 -2.51352 10.8436
-21.4138 -2.43146 10.674
-19.9975 -2.599 10.4372
-24.643 -4.00419 11.2736
-20.0023 -2.78449 10.4437
-23.573 -3.94811 11.0891
-23.2748 -3.96796 11.0388
-22.0917 -4.17285 10.843
-21.1566 -4.3552 10.6888
-18.3791 6.0914 9.89539
-18.5054 6.17393 9.91443
-20.3584 5.51047 10.2512
-20.8234 6.07771 10.3133
-19.3095 3.5501 10.1319
-21.1246 5.44535 10.3841
-19.7739 3.52346 10.2121
-20.2573 3.7403 10.288
-23.2225 5.7769 10.7323
-19.4971 1.89047 10.2146
-23.3009 3.88798 10.8034
-20.6951 1.69946 10.4251
-21.0628 1.67581 10.4886
-21.5967 1.77968 10.5767
-21.9851 1.73213 10.6445
-22.5398 1.89816 10.7342
-26.2174 2.31134 11.3497
-27.4631 2.22722 11.5651
-20.3516 -0.426018 10.4313
-20.2585 -0.511782 10.418
-20.3537 -0.561321 10.4358
-21.6102 -0.456807 10.6473
-26.5145 -0.113123 11.4745
-24.4191 -0.460336 11.1272
-35.2017 -0.022655 12.9557
-23.4815 -2.35492 11.0249
-29.2115 -3.76676 12.0468
-20.8656 -2.58187 10.5849
-20.7348 -2.67409 10.5654
-20.9912 -2.81346 10.6135
-19.9728 -2.70564 10.4362
-22.8097 -4.2225 10.9671
-21.1518 -4.24854 10.6847
-20.077 -4.32438 10.5034
-18.733 3.59391 10.0321
-21.1683 5.75138 10.3822
-19.6192 3.60361 10.1832
-21.9923 5.43639 10.5326
-22.0706 5.23986 10.552
-22.0629 5.04407 10.5566
-18.9388 1.74306 10.1238
-19.3108 1.64774 10.1902
-19.5235 1.76072 10.2231
-19.3984 1.57525 10.2074
-23.9636 3.59989 10.9254
-27.7924 5.85278 11.5107
-24.3532 3.65895 10.9901
-21.1336 1.60579 10.5029
-21.733 1.73762 10.6012
-21.9392 1.72558 10.6368
-22.0761 1.69168 10.6612
-24.612 1.91401 11.0876
-26.0144 2.06491 11.3226
-20.2685 -0.197059 10.4101
-19.4893 -0.577131 10.2886
-19.74 -0.569527 10.3312
-20.3087 -0.555365 10.4279
-22.1174 -0.518348 10.7358
-23.4875 -2.20991 11.0215
-23.493 -2.4293 11.0291
-22.3303 -2.53573 10.8337
-21.3557 -2.45743 10.6649
-20.9224 -2.58011 10.5946
-26.4783 -3.95249 11.5856
-20.2508 -2.82521 10.4873
-19.7324 -2.73099 10.3959
-23.9627 -3.95563 11.1559
-19.3294 -2.77165 10.3283
-22.8178 -4.13651 10.9659
-22.5441 -4.13969 10.9192
-22.0703 -4.1458 10.8385
-20.1353 -4.32388 10.5134
-18.6059 6.21898 9.93023
-19.7276 3.47547 10.2056
-22.6199 5.75913 10.6299
-23.9039 5.90286 10.8449
-20.2846 1.67903 10.3556
-20.3242 1.61295 10.3644
-20.7224 1.63824 10.4316
-24.7183 3.72992 11.0504
-29.5521 6.17126 11.8015
-21.9123 1.7148 10.6326
-21.8372 1.4072 10.6291
-22.682 1.61215 10.7672
-24.5026 1.87714 11.0701
-26.1754 2.11179 11.3487
-19.3422 -0.542002 10.2624
-19.5973 -0.582791 10.3072
-31.2645 1.96144 12.2226
-20.3509 -0.557441 10.4352
-20.1762 -0.622308 10.4074
-20.3753 -0.683418 10.4432
-21.388 -0.523864 10.6113
-23.8818 -0.143766 11.0257
-23.9126 -0.769201 11.0501
-32.4703 -3.68124 12.6008
-28.307 -3.80176 11.8933
-20.5941 -2.6975 10.5421
-25.5869 -4.03323 11.4357
-19.8699 -2.73131 10.4194
-19.7409 -2.75386 10.3981
-22.9144 -4.15713 10.983
-18.4556 6.21911 9.90455
-19.0245 6.19353 10.0025
-18.9701 3.54395 10.0741
-19.8341 3.59975 10.22
-21.3294 5.34343 10.4222
-18.8973 1.79198 10.1152
-18.9028 1.70467 10.1188
-19.5113 1.70419 10.2227
-20.3035 1.63826 10.3601
-21.5702 1.76991 10.5724
-21.9316 1.65493 10.6377
-31.1314 6.15522 12.0718
-31.7481 6.19794 12.1758
-22.8861 1.67005 10.8003
-28.6938 3.97561 11.7219
-25.9956 2.24551 11.3139
-20.3418 -0.462052 10.4307
-20.3719 -0.522578 10.4377
-24.7296 -2.38101 11.2389
-23.4552 -2.33199 11.0197
-21.363 -2.47053 10.6665
-20.9064 -2.6688 10.5946
-25.699 -3.95431 11.4525
-19.9515 -2.69738 10.4323
-19.9741 -2.76778 10.4383
-19.4472 -2.65495 10.3449
-23.6066 -4.11818 11.1001
-20.8908 -4.25131 10.6402
-18.9557 3.58362 10.0704
-20.9895 5.97206 10.3449
-19.2499 3.45925 10.1245
-21.1421 5.65827 10.3806
-19.627 3.59076 10.1849
-21.0133 5.27608 10.3703
-20.2892 3.60241 10.2977
-22.8403 3.83458 10.7264
-25.7365 5.60583 11.167
-20.3932 1.75386 10.3719
-26.7383 5.8492 11.3307
-23.8434 3.83649 10.8976
-20.5856 1.67515 10.4071
-23.8775 3.54578 10.9123
-24.7207 3.88828 11.0459
-22.3073 1.68381 10.701
-28.8986 2.18187 11.8117
-19.4151 -0.565156 10.2756
-19.5074 -0.600296 10.2924
-23.8073 -0.307352 11.018
-26.6008 -0.0989685 11.4888
-20.9705 -2.5192 10.6009
-20.7794 -2.55499 10.5694
-20.3611 -2.65203 10.5009
-19.9974 -2.69436 10.4401
-19.4809 -2.64689 10.3504
-23.2899 -4.07564 11.0447
-22.4296 -4.05578 10.8971
-20.5707 -4.27145 10.5862
-18.4824 3.55377 9.9905
-18.693 3.54829 10.0266
-20.9862 5.91632 10.3461
-19.9068 3.52086 10.2348
-23.2388 5.83306 10.7334
-19.4659 1.69311 10.2153
-22.6202 3.8283 10.6889
-25.5625 5.74727 11.133
-20.4019 1.69705 10.3751
-20.6669 1.76847 10.4182
-20.695 1.69061 10.4253
-23.921 3.62443 10.9174
-27.8022 5.90323 11.5108
-20.9762 1.65861 10.4744
-21.7054 1.99887 10.5885
-21.9141 1.78566 10.6307
-30.815 6.27527 12.0141
-22.5598 1.89138 10.7378
-23.3571 1.9058 10.8735
-28.7118 3.97743 11.725
-26.5788 2.06423 11.419
-19.3703 -0.551316 10.2675
-19.4639 -0.585677 10.2846
-19.7466 -0.562907 10.3322
-20.3956 -0.587852 10.4438
-23.8168 -0.260541 11.0182
-29.0872 -0.0729404 11.9128
-24.072 -2.28233 11.1235
-21.5677 -2.46243 10.7012
-21.3015 -2.49803 10.6568
-20.6464 -2.49092 10.5447
-20.2379 -2.78632 10.484
-19.437 -2.63818 10.3426
-19.1276 -2.64264 10.2899
-22.946 -4.02093 10.9843
-21.0837 -4.24485 10.673
-18.5178 6.13862 9.91763
-19.1356 3.64729 10.0992
-20.0528 3.67018 10.2552
-22.8113 5.59865 10.6675
-19.0586 1.6912 10.1458
-19.4407 1.87762 10.2054
-19.3531 1.69027 10.1961
-19.5149 1.63353 10.2255
-22.8648 3.86486 10.7296
-26.9568 5.79798 11.3696
-23.8015 3.66039 10.8959
-20.7419 1.69415 10.4333
-30.8966 6.3903 12.0245
-21.9975 1.58486 10.6511
-22.0084 1.48331 10.656
-24.5629 2.06076 11.0748
-31.2562 4.3821 12.1473
-26.6241 2.04056 11.4275
-19.4416 -0.582687 10.2807
-19.7885 -0.547949 10.3388
-20.4346 -0.592388 10.4506
-21.3478 -0.451492 10.6023
-24.1348 -0.588006 11.0825
-22.3043 -2.52723 10.829
-29.4259 -3.72931 12.0822
-26.9741 -3.89936 11.6686
-20.4004 -2.57472 10.5053
-20.3531 -2.62189 10.4986
-19.761 -2.69816 10.3998
-19.4123 -2.64413 10.3386
-23.2938 -4.09106 11.0458
-22.8884 -4.07621 10.9761
-18.3033 6.03801 9.88406
-20.011 5.69479 10.1863
-20.134 5.68356 10.2076
-19.0069 3.52847 10.0809
-19.2027 3.55509 10.1135
-21.1448 5.70319 10.3797
-20.5717 3.55104 10.3475
-19.3439 1.64137 10.1961
-20.5416 1.73303 10.3979
-28.3926 5.92848 11.6109
-27.2957 3.95113 11.4839
-22.094 1.48935 10.6705
-23.0858 1.72677 10.8326
-32.1492 4.54268 12.2949
-19.2787 -0.544801 10.2517
-19.5754 -0.513492 10.3014
-24.0082 -0.64166 11.0625
-28.8451 -3.77859 11.9845
-25.2958 -4.00825 11.3853
-23.2273 -4.04695 11.0331
-22.5038 -4.20241 10.9143
-20.8372 -4.29514 10.6324
-20.0775 -4.28679 10.5024
-18.9067 3.69607 10.0586
-18.9967 3.52642 10.0792
-20.2055 3.682 10.2809
-20.4936 3.68817 10.33
-22.6763 5.51862 10.6469
-25.6596 5.84868 11.1465
-25.6569 5.63748 11.1524
-20.3613 1.74487 10.3667
-23.853 3.51352 10.9092
-28.3746 5.9645 11.6067
-24.826 3.77059 11.0675
-30.3081 6.17898 11.9304
-22.5969 1.67661 10.7507
-23.2774 1.86792 10.8611
-28.0458 3.95162 11.612
-24.7649 1.76506 11.1183
-26.3584 2.00477 11.3832
-19.4271 -0.58428 10.2782
-19.7676 -0.548109 10.3353
-20.2711 -0.462441 10.4187
-20.0161 -0.547816 10.3777
-21.9254 -0.436791 10.7005
-23.929 -0.411115 11.042
-25.5851 -2.26439 11.3814
-21.4179 -2.52095 10.6774
-20.988 -2.56536 10.6053
-20.8062 -2.6458 10.5767
-25.6218 -3.99648 11.4406
-25.0792 -4.01301 11.3484
-24.6844 -4.03693 11.2817
-19.4132 -2.72403 10.3412
-19.3063 -2.73295 10.3232
-23.364 -4.07598 11.0573
-23.103 -4.17682 11.0158
-18.9564 -4.31073 10.3116
-18.895 3.59558 10.0597
-20.3087 5.61288 10.2396
-19.2236 3.37457 10.1226
-19.3377 3.25609 10.1457
-19.9716 3.51345 10.2461
-19.5059 1.58413 10.2255
-20.3497 1.7373 10.3649
-23.9365 3.98175 10.9091
-21.5436 1.99876 10.5609
-21.8812 1.6576 10.629
-26.6983 3.932 11.3824
-28.664 2.14006 11.7729
-20.384 -0.499541 10.4391
-21.5277 -0.560695 10.6363
-23.8282 -0.35754 11.0231
-24.248 -0.407023 11.0963
-28.4026 -0.0891674 11.7963
-30.3656 -1.94955 12.1884
-21.2989 -2.4929 10.6562
-20.836 -2.60024 10.5805
-19.424 -2.65726 10.341
-23.9245 -4.00068 11.1508
-19.3732 -2.76147 10.3355
-21.0659 -4.32354 10.6723
-20.919 -4.33502 10.6476
-18.8565 -4.46347 10.2992
-18.6591 6.02211 9.94533
-18.7304 6.06485 9.9562
-21.1583 5.76923 10.38
-19.6097 3.49746 10.1848
-21.4716 5.38431 10.4452
-22.6091 5.56808 10.6339
-19.3566 1.57507 10.2003
-25.5649 5.81428 11.1313
-20.3206 1.80251 10.358
-26.2684 5.60735 11.2578
-20.6639 1.6233 10.4221
-27.4886 5.73274 11.4624
-21.8963 1.94523 10.6228
-22.409 1.78254 10.7153
-31.6834 6.19325 12.1649
-22.5916 1.59261 10.7523
-24.7912 1.73169 11.1238
-26.5896 2.06625 11.4208
-33.8918 4.37999 12.5975
-29.3763 2.17879 11.8934
-20.376 -0.602407 10.4409
-20.3483 -0.67437 10.4383
-21.457 -0.489791 10.6221
-22.8517 -0.394648 10.8574
-31.6441 -3.68832 12.4599
-21.3571 -2.48839 10.6661
-26.5817 -3.56199 11.5913
-20.6643 -2.62909 10.552
-19.4868 -2.75742 10.3548
-21.1216 -4.21253 10.6785
-18.5227 6.08503 9.9201
-18.8489 6.04531 9.97704
-18.676 3.62054 10.0215
-21.2253 5.24646 10.4074
-21.5684 5.40107 10.4613
-22.0488 5.06111 10.5537
-19.6984 1.93076 10.2478
-25.1345 5.74417 11.06
-25.8871 5.65491 11.1912
-20.3465 1.61586 10.3681
-20.774 1.8177 10.435
-24.3428 3.94619 10.9796
-25.1639 3.9298 11.1204
-22.0229 1.57178 10.6558
-23.0161 1.89984 10.8155
-28.2691 4.12041 11.645
-20.0694 -0.486811 10.385
-19.828 -0.573363 10.3464
-20.8355 -0.421943 10.5139
-22.0036 -0.463132 10.7146
-28.8165 -3.8378 11.9815
-20.4002 -2.6344 10.507
-19.7441 -2.75455 10.3986
-23.2765 -3.94217 11.0383
-23.1146 -4.22529 11.0193
-22.3811 -4.14118 10.8914
-21.0337 -4.20884 10.6633
-20.7883 -4.32035 10.6248
-18.5267 6.11128 9.91999
-19.0931 3.63642 10.0923
-21.5125 5.53664 10.4476
-20.1642 3.67644 10.2741
-22.1157 5.23418 10.5599
-24.0707 5.91335 10.8731
-19.3684 1.55128 10.203
-20.3381 1.79554 10.3612
-23.1903 3.80425 10.7871
-20.3655 1.72043 10.3681
-20.838 1.86113 10.4446
-24.4414 4.03089 10.9939
-30.1063 6.13198 11.8974
-22.5651 1.63793 10.7464
-22.0737 -0.442665 10.726
-22.9077 -0.419405 10.8677
-24.2392 -0.424888 11.0954
-23.6236 -2.29338 11.0473
-23.7301 -2.41182 11.0691
-22.2726 -2.49938 10.8228
-20.9757 -2.52829 10.6021
-27.7025 -3.8748 11.7923
-20.3377 -2.65181 10.4969
-19.9831 -2.76676 10.4398
-23.2837 -4.10911 11.0446
-22.5384 -4.12799 10.9179
-22.4001 -4.17719 10.8958
-21.9746 -4.19148 10.8235
-18.8664 6.11649 9.97785
-20.1565 5.65396 10.2124
-20.798 5.53289 10.3256
-21.212 5.65496 10.3926
-19.724 3.5718 10.2021
-20.0383 3.63766 10.2537
-22.1357 5.57239 10.5529
-19.3722 1.54164 10.2039
-25.629 5.627 11.148
-23.2548 3.79543 10.7984
-21.2719 1.75169 10.522
-21.7096 1.93929 10.5911
-21.1875 1.59395 10.5124
-29.1057 5.97873 11.7312
-29.6691 6.05938 11.8249
-25.8296 3.84669 11.2366
-22.1283 1.69178 10.6701
-20.3881 -0.567613 10.4419
-20.4211 -0.626274 10.4493
-22.9216 -0.406459 10.8697
-23.8693 -0.35277 11.03
-24.2411 -0.6998 11.1041
-32.2422 -3.72236 12.5631
-22.2347 -2.61006 10.8197
-29.3522 -3.83141 12.0728
-20.7738 -2.69963 10.5729
-25.6223 -4.00594 11.441
-23.6524 -3.94707 11.1027
-22.7098 -4.16418 10.9483
-20.2044 -4.29742 10.5244
-18.8802 5.8744 9.9876
-18.4462 3.54475 9.98459
-20.1012 5.71228 10.2011
-19.1316 3.5217 10.1024
-21.0092 5.91039 10.3502
-19.7197 3.55944 10.2017
-21.1902 5.42747 10.3958
-22.0572 5.69391 10.5358
-20.3225 3.57843 10.3041
-23.692 5.79757 10.8119
-24.2014 5.92684 10.895
-20.4717 1.64689 10.3885
-26.7521 5.79689 11.3347
-27.0193 5.76418 11.3813
-24.0108 3.68804 10.9308
-24.5845 3.91059 11.022
-27.6624 5.74819 11.4916
-21.7687 1.92009 10.6018
-28.6408 4.20063 11.706
-19.9596 -0.555355 10.3683
-21.5176 -0.502684 10.6328
-24.2514 -0.688764 11.1055
-20.8718 -2.64291 10.5879
-26.4462 -3.88178 11.5779
-20.0692 -2.76372 10.4544
-24.3214 -4.0067 11.2188
-22.6099 -4.15827 10.931
-21.2088 -4.20644 10.6932
-21.1628 -4.27366 10.6874
-18.8236 6.17381 9.9688
-18.4267 3.46404 9.98372
-18.5422 3.36828 10.0064
-18.9321 3.63724 10.0648
-19.7916 3.51025 10.2155
-20.2812 3.75711 10.2916
-20.403 3.61171 10.3168
-21.9414 5.11544 10.5337
-19.5711 1.89644 10.2271
-25.6947 5.79538 11.1541
-20.4548 1.76619 10.382
-23.9527 3.87903 10.915
-28.7843 6.17625 11.6702
-24.8538 3.70932 11.0741
-22.0794 1.71256 10.6612
-30.8645 6.21535 12.0244
-22.4528 1.63827 10.7272
-27.6987 4.04308 11.5499
-24.6539 2.00345 11.0921
-19.3823 -0.511643 10.2683
-19.5996 -0.496835 10.305
-19.6343 -0.563719 10.313
-20.2664 -0.479427 10.4184
-20.4383 -0.503333 10.4485
-22.4549 -0.303416 10.7869
-21.536 -0.546283 10.6373
-23.7723 -2.48727 11.0786
-21.4449 -2.50353 10.6815
-29.0604 -3.83639 12.0231
-20.4321 -2.5782 10.5108
-20.4495 -2.64854 10.5159
-19.9166 -2.65594 10.4251
-22.9099 -4.19532 10.9834
-21.1886 -4.35113 10.6941
-20.1344 -4.26434 10.5114
-19.0557 3.50555 10.0899
-19.383 3.60572 10.1428
-19.6701 3.60462 10.1918
-20.9432 5.23952 10.3594
-21.3213 5.37789 10.4197
-20.2971 3.59573 10.2992
-20.6747 3.64358 10.3623
-22.2899 5.39263 10.5848
-19.5036 1.84958 10.217
-20.3548 1.78633 10.3643
-20.736 1.69161 10.4323
-27.3853 5.91526 11.4392
-24.2585 3.7797 10.9703
-21.0178 1.67214 10.4811
-21.7877 1.84387 10.6073
-21.8854 1.79478 10.6255
-21.9596 1.72976 10.6402
-26.7354 3.89776 11.3898
-21.8892 1.42277 10.6375
-23.8181 2.06855 10.9473
-23.9995 2.0232 10.9797
-28.7417 4.06682 11.7274
-26.1619 2.02229 11.3491
-19.5802 -0.571596 10.304
-19.9054 -0.567012 10.3594
-20.3351 -0.507163 10.431
-23.9606 -0.127063 11.0387
-24.1401 -0.383062 11.0772
-24.5164 -0.44498 11.1433
-21.2235 -2.58414 10.6461
-20.8104 -2.55943 10.5748
-20.3657 -2.58548 10.4997
-20.7675 -2.69153 10.5715
-25.5627 -3.98974 11.4303
-25.2275 -4.03742 11.3745
-19.7969 -2.68948 10.4057
-24.7239 -4.03144 11.2883
-19.4888 -2.66209 10.3522
-23.7305 -4.00432 11.1178
-23.2852 -3.99595 11.0414
-23.4037 -4.15079 11.0664
-19.0635 -4.2979 10.3295
-18.9916 -4.38546 10.3199
-18.7111 6.02068 9.95426
-19.0543 3.55657 10.0881
-21.0927 5.83777 10.3667
-19.5989 3.61838 10.1793
-18.6279 1.81592 10.0684
-18.9621 1.78004 10.1266
-22.6176 5.56127 10.6356
-23.8097 5.95837 10.8271
-19.5857 1.77723 10.2332
-19.4961 1.59231 10.2236
-19.5147 1.52046 10.2289
-20.6267 1.66902 10.4143
-23.9012 3.817 10.9081
-20.9406 1.70192 10.467
-23.9935 3.56493 10.9316
-21.7445 1.68944 10.6047
-21.9644 1.69054 10.6422
-31.0407 6.14192 12.0567
-26.8788 3.92618 11.4134
-21.9834 1.45655 10.6526
-25.7405 2.28941 11.2689
-19.5146 -0.479164 10.29
-19.4419 -0.559413 10.28
-19.7624 -0.574663 10.3352
-20.4127 -0.564467 10.446
-24.701 -0.444945 11.1749
-23.6913 -2.24114 11.0572
-21.2334 -2.56216 10.6472
-27.0137 -3.94526 11.6768
-26.1708 -3.9342 11.5325
-20.3028 -2.79674 10.4954
-19.4927 -2.65439 10.3526
-19.5901 -2.73044 10.3716
-23.6199 -4.05357 11.1004
-22.9961 -4.24873 10.9998
-18.9606 -4.41662 10.3155
-18.8574 5.94959 9.98142
-19.0638 3.77013 10.0832
-19.39 3.29349 10.1535
-20.5898 3.59954 10.3491
-18.9494 1.79099 10.1241
-19.4843 1.60501 10.2211
-25.5889 5.6609 11.1401
-23.2416 3.8367 10.7948
-23.9753 4.02963 10.9143
-20.9002 1.66473 10.4612
-28.6268 6.01338 11.6483
-21.8894 1.73358 10.6281
-21.9923 1.66396 10.6478
-23.3524 1.9406 10.8717
-19.246 -0.549169 10.2462
-20.2495 -0.399923 10.4131
-19.4914 -0.599657 10.2897
-21.3092 -0.443653 10.5954
-23.478 -2.32765 11.0234
-23.6311 -2.61305 11.0583
-28.2755 -3.77953 11.8873
-20.6117 -2.54485 10.5404
-26.4758 -3.99854 11.5865
-19.9369 -2.56222 10.4257
-19.3482 -2.69277 10.3291
-22.9738 -4.24895 10.996
-19.0052 -4.24297 10.3179
-18.9754 -4.4051 10.3177
-18.5929 6.2018 9.92853
-18.9178 6.15326 9.98552
-18.4937 3.52335 9.99336
-18.7249 3.66476 10.0285
-18.9449 3.76056 10.0632
-19.2477 3.64457 10.1185
-20.8381 5.99795 10.3183
-21.1197 5.57759 10.3792
-19.7137 3.61824 10.1989
-22.6363 5.79705 10.6316
-23.8405 6.00175 10.8311
-25.6143 5.68734 11.1436
-20.3111 1.69395 10.3597
-20.6246 1.70087 10.413
-27.3255 5.91356 11.4291
-21.7007 1.70598 10.5967
-21.9418 1.71614 10.6375
-30.7777 6.21438 12.0096
-27.2478 3.88497 11.4777
-24.5893 2.05663 11.0794
-25.798 2.24333 11.2802
-26.0083 2.17006 11.3183
-28.9224 2.2456 11.8138
-19.385 -0.544652 10.2698
-19.8598 -0.501291 10.3496
-22.0797 -0.46804 10.7278
-26.6444 -0.101574 11.4963
-25.7787 -0.361572 11.3564
-23.9183 -0.645881 11.0473
-23.5111 -2.5283 11.0352
-20.6585 -2.57018 10.5492
-20.3285 -2.54604 10.4921
-20.74 -2.65951 10.5659
-25.2457 -3.9258 11.3742
-19.8424 -2.61183 10.4111
-19.7745 -2.64997 10.4006
-24.5394 -3.9915 11.2555
-19.9904 -2.7772 10.4414
-23.7504 -4.07606 11.1233
-21.1361 -4.23844 10.6817
-20.0504 -4.25367 10.4967
-18.9015 -4.44694 10.3064
-18.8943 6.09434 9.98329
-19.0342 6.0058 10.0099
-19.634 6.1848 10.1069
-18.4434 3.71447 9.97894
-18.8447 3.65976 10.0492
-19.0247 3.66661 10.0797
-20.9986 5.81823 10.3512
-21.1346 5.82373 10.3743
-19.3748 3.47046 10.1455
-21.1276 5.6001 10.3799
-19.6292 3.571 10.1859
-22.2042 5.77458 10.5585
-22.2788 5.6655 10.5745
-18.9841 1.74718 10.1314
-23.8002 6.07016 10.8221
-19.3169 1.7134 10.1893
-19.3776 1.68552 10.2005
-25.4671 5.88346 11.1125
-23.0377 3.93836 10.7569
-23.1893 3.90428 10.7839
-20.3566 1.79736 10.3643
-20.3532 1.68056 10.3673
-20.6141 1.75662 10.4095
-27.2951 6.00292 11.4211
-27.5233 5.93728 11.4621
-21.5121 2.07999 10.553
-24.1696 3.71205 10.9572
-24.9698 4.02619 11.0843
-24.9534 3.8465 11.0869
-21.8407 1.91276 10.6143
-21.7567 1.75286 10.6048
-27.2459 3.88704 11.4773
-24.0352 1.97933 10.9871
-19.3663 -0.532126 10.2662
-20.3099 -0.560539 10.4283
-21.9469 -0.350138 10.7015
-22.213 -0.383814 10.748
-23.7344 -0.165817 11.0012
-24.0654 -0.389537 11.0646
-25.5781 -2.16063 11.3771
-21.29 -2.39725 10.6518
-20.8559 -2.45141 10.5793
-20.8304 -2.63303 10.5805
-19.3802 -2.62626 10.3325
-23.4521 -3.99123 11.0698
-21.1052 -4.12715 10.6731
-20.0215 -4.22571 10.4909
-18.9045 -4.32909 10.3033
-18.7928 5.90287 9.97181
-19.8321 5.89989 10.1494
-18.7665 3.64559 10.0362
-20.2795 5.57078 10.2359
-20.2142 3.64796 10.2835
-20.3303 3.57933 10.3054
-22.0755 5.29806 10.551
-23.6487 5.78836 10.8048
-19.631 1.95622 10.2355
-25.7339 5.86734 11.1586
-20.3738 1.79605 10.3673
-20.3248 1.66037 10.363
-20.6271 1.65587 10.4148
-27.436 5.85735 11.4496
-28.2648 6.111 11.5835
-28.6705 6.13427 11.6521
-21.828 1.7827 10.6161
-22.0378 1.77169 10.6522
-23.3004 1.93319 10.863
-25.8312 2.32388 11.2834
-19.8864 -0.544201 10.3555
-23.9665 -0.134716 11.0399
-24.2816 -0.312044 11.0992
-23.6327 -2.26764 11.048
-26.2145 -3.86697 11.5379
-19.9927 -2.77103 10.4416
-19.5432 -2.70046 10.3627
-22.7576 -4.07737 10.9538
-22.7487 -4.18026 10.9554
-21.1247 -4.18002 10.678
-21.0295 -4.21692 10.6629
-20.0481 -4.24266 10.496
-18.9849 -4.31631 10.3166
-18.4742 3.60454 9.98755
-19.8784 5.82573 10.1596
-18.8184 3.62332 10.0458
-19.0685 3.77025 10.084
-19.0443 3.5509 10.0866
-20.2943 5.4523 10.242
-19.3604 3.46385 10.1432
-21.2045 5.75586 10.3883
-19.9742 3.57561 10.2447
-21.4848 5.33726 10.4489
-20.0334 3.50937 10.2568
-19.3646 1.67461 10.1986
-19.5654 1.75351 10.2305
-19.6284 1.72379 10.2421
-25.6109 5.75093 11.1411
-20.3573 1.7604 10.3655
-26.3392 5.82329 11.2633
-20.5752 1.7101 10.4043
-21.3063 1.65548 10.5308
-21.9212 1.9563 10.6267
-25.8778 3.97919 11.2408
-27.3873 3.83051 11.5032
-28.6057 4.17048 11.701
-19.3526 -0.585043 10.2655
-21.341 -0.502118 10.6026
-21.698 -0.467986 10.6626
-20.6904 -2.49622 10.5524
-19.9857 -2.67854 10.4376
-19.4079 -2.71121 10.3399
-23.3552 -4.11425 11.057
-18.6705 3.53667 10.0232
-19.0875 3.76188 10.0875
-20.2587 5.57306 10.2323
-19.1652 3.56618 10.1068
-20.3856 5.35712 10.2605
-21.0617 5.93904 10.3583
-19.3236 3.52237 10.1352
-19.3675 3.44047 10.1452
-19.9604 3.52754 10.2438
-20.2057 3.57468 10.2843
-22.7866 5.60377 10.6632
-23.1779 5.85336 10.7224
-19.0883 1.65342 10.152
-19.4186 1.66652 10.2081
-19.4201 1.34832 10.218
-20.5099 1.91242 10.387
-20.5547 1.7024 10.401
-23.9881 3.61404 10.9292
-28.2296 6.17255 11.5756
-24.7943 3.94248 11.0568
-21.091 1.64027 10.4945
-29.3404 6.33181 11.7605
-21.7665 1.65596 10.6094
-26.6934 4.10773 11.3762
-20.4387 -0.108037 10.4365
-21.4777 -0.556285 10.6277
-24.0946 -0.424592 11.0707
-26.087 -2.27661 11.4675
-21.3072 -2.5595 10.6597
-25.4209 -3.88817 11.403
-19.4928 -2.62555 10.3518
-19.5504 -2.69916 10.3639
-21.0497 -4.27307 10.668
-19.0007 -4.35758 10.3206
-18.5918 6.18503 9.92885
-19.7113 6.20467 10.1195
-20.3641 5.41158 10.2552
-19.4036 3.55136 10.1479
-19.6756 3.44585 10.1976
-20.1718 3.65399 10.276
-21.5554 5.29125 10.4624
-20.5793 3.52978 10.3494
-19.0482 1.66659 10.1448
-24.2303 5.92617 10.8999
-22.8692 3.72813 10.7345
-23.2361 3.87148 10.7928
-20.3524 1.71055 10.3662
-26.4256 5.87039 11.2767
-23.9835 4.07767 10.9142
-24.2369 3.88418 10.9634
-21.2418 1.5763 10.5222
-26.6304 4.16532 11.3637
-21.9688 1.6802 10.6433
-22.4192 1.79985 10.7165
-22.6141 1.62609 10.7551
-24.1184 1.93859 11.0026
-19.2989 -0.432535 10.2517
-19.3517 -0.516909 10.2633
-19.2005 -0.622891 10.2407
-24.9254 -4.0841 11.3243
-24.5186 -4.09298 11.2551
-19.8031 -2.76773 10.4091
-19.4592 -2.70885 10.3486
-22.6024 -4.17061 10.9301
-21.1183 -4.1936 10.6773
-21.0404 -4.30823 10.6675
-20.8218 -4.35809 10.6317
-18.2968 5.97773 9.88479
-18.5681 6.16886 9.92531
-19.9886 5.66194 10.1834
-18.9683 3.50735 10.0749
-20.0334 5.17055 10.2061
-19.0226 3.44289 10.0862
-19.2417 3.43872 10.1237
-19.2837 3.20415 10.1381
-19.7743 3.46116 10.214
-21.1506 5.15562 10.3974
-19.8546 3.43095 10.2287
-22.6158 5.73906 10.6299
-23.173 3.85703 10.7825
-20.653 1.62333 10.4202
-20.8908 1.6729 10.4593
-20.9033 1.55416 10.4651
-21.6672 1.65162 10.5926
-21.9118 1.69631 10.633
-26.9863 4.04861 11.4281
-22.4152 1.74072 10.7177
-22.7035 1.64079 10.77
-23.7439 2.01932 10.9361
-23.7471 1.89316 10.9405
-25.1854 2.07103 11.1808
-19.3563 -0.574945 10.2658
-19.5322 -0.575331 10.2959
-19.4437 -0.664218 10.2835
-20.1962 -0.561107 10.4089
-20.3465 -0.591539 10.4355
-21.1504 -0.507141 10.5702
-21.8911 -0.510741 10.6969
-23.7756 -0.324706 11.0131
-21.0749 -2.58605 10.6208
-20.8451 -2.60938 10.5823
-25.5437 -4.0516 11.4289
-23.5071 -3.93235 11.0774
-19.4056 -2.70219 10.3392
-23.1895 -4.21103 11.0316
-19.3672 -2.8725 10.3378
-22.0678 -4.20691 10.8399
-18.8746 5.9163 9.98538
-18.9253 5.90188 9.99447
-18.5378 3.36348 10.0058
-19.8917 5.74022 10.1645
-21.0371 5.85031 10.3568
-21.1143 5.33061 10.3858
-20.008 3.51468 10.2523
-19.6534 1.89276 10.2412
-24.1405 5.83856 10.8873
-24.2588 3.81574 10.9692
-21.9463 1.6468 10.6404
-21.9459 1.54148 10.6436
-23.7729 1.96283 10.9428
-23.9884 1.93745 10.9804
-29.6928 4.09899 11.8888
-26.1978 2.0279 11.355
-26.9409 2.1101 11.4795
-19.576 -0.526742 10.3019
-19.4412 -0.641084 10.2824
-21.3351 -0.5003 10.6016
-22.8776 -0.405656 10.8622
-23.7546 -0.316991 11.0093
-22.3063 -2.49003 10.8282
-20.6098 -2.56111 10.5406
-20.3714 -2.64025 10.5023
-19.8748 -2.55354 10.4148
-19.5006 -2.65483 10.354
-20.0825 -2.85226 10.4594
-23.5152 -4.10905 11.0842
-19.4027 -2.80533 10.3419
-22.3721 -4.23788 10.8928
-21.1063 -4.22325 10.6762
-21.0181 -4.34568 10.6648
-19.7629 3.45815 10.2122
-21.3858 5.38403 10.4306
-20.6428 3.67966 10.3557
-20.6784 1.70594 10.4221
-21.7465 1.80289 10.6015
-21.7092 1.676 10.5991
-28.0147 3.97154 11.6061
-26.2452 2.07838 11.3616
-19.5336 -0.589746 10.2966
-22.6391 -0.405808 10.8215
-24.055 -0.598944 11.0692
-23.6437 -2.40989 11.0542
-23.8294 -2.53921 11.0899
-22.3154 -2.48387 10.8296
-29.4377 -3.69161 12.0831
-28.9839 -3.79543 12.0088
-21.2056 -2.55779 10.6423
-20.955 -2.57621 10.6
-26.6107 -3.90583 11.6067
-25.917 -3.97443 11.4903
-25.3298 -3.96026 11.3896
-25.0797 -4.02481 11.3488
-24.1437 -3.89162 11.1849
-23.3299 -3.93468 11.0472
-23.3174 -4.0381 11.0482
-21.0495 -4.20676 10.666
-21.1999 -4.36271 10.6964
-20.1591 -4.27504 10.5159
-18.9673 -4.32829 10.314
-18.6127 6.20729 9.93176
-19.1041 6.17314 10.0167
-21.1812 5.85396 10.3813
-23.6545 5.80485 10.8053
-20.6092 1.72415 10.4097
-24.2586 3.87549 10.9674
-21.1164 1.6915 10.4973
-29.2277 6.2816 11.7427
-21.9474 1.7781 10.6366
-21.8996 1.44184 10.6387
-26.6377 2.03839 11.4299
-34.2414 4.46022 12.6548
-21.2972 -0.438553 10.5932
-26.7705 -0.149175 11.5194
-22.4058 -2.48298 10.845
-21.4304 -2.38806 10.6755
-28.3312 -3.71184 11.8947
-26.0232 -3.78916 11.5028
-19.9033 -2.46856 10.4171
-25.4038 -3.92461 11.4011
-20.3639 -2.68148 10.5023
-20.4138 -2.76007 10.5132
-20.0468 -2.69161 10.4484
-23.2576 -3.9605 11.0356
-22.5982 -4.09213 10.927
-21.0863 -4.14175 10.6703
-20.0912 -4.27395 10.5043
-19.7025 -4.35401 10.4404
-18.8727 6.19722 9.97646
-20.0151 5.75403 10.1851
-18.9677 3.68476 10.0694
-20.1402 5.76183 10.2063
-20.1536 3.73669 10.2704
-20.1999 3.65222 10.2809
-19.4813 1.98105 10.2092
-19.4997 1.80888 10.2176
-22.1296 3.88693 10.6033
-20.4147 1.70345 10.3771
-20.7488 1.66133 10.4354
-21.5823 2.03969 10.5663
-28.4367 6.09729 11.6133
-21.6925 1.74939 10.594
-23.1431 1.77698 10.8409
-26.444 2.06626 11.3959
-31.1135 2.14365 12.1912
-23.6851 -2.17114 11.054
-23.6688 -2.27487 11.0544
-23.9371 -2.41008 11.1044
-26.6858 -3.82744 11.6172
-21.034 -2.75386 10.619
-23.6528 -3.82471 11.099
-20.071 -2.80262 10.4559
-20.7169 -4.24714 10.6104
-20.0881 -4.22487 10.5023
-19.6826 6.20872 10.1145
-19.92 5.814 10.1671
-19.2479 3.52776 10.1221
-21.0924 5.44511 10.3786
-19.7985 3.53732 10.2158
-22.084 5.79001 10.5375
-22.3742 5.65159 10.5913
-19.6106 1.97109 10.2315
-22.9801 3.88013 10.7488
-20.43 1.85947 10.3749
-20.9815 1.64883 10.4756
-21.1748 1.66382 10.5081
-21.8035 1.9659 10.6063
-21.7376 1.79039 10.6004
-26.7324 3.96004 11.3874
-36.1823 4.81859 12.9754
-28.637 2.33544 11.7623
-20.1672 -0.437435 10.4002
-31.1415 2.2333 12.1933
-23.5564 -2.42423 11.0398
-26.4978 -3.80078 11.5843
-25.9934 -3.82644 11.4989
-20.4555 -2.54242 10.5137
-21.0289 -2.70651 10.6166
-24.8163 -3.92788 11.3009
-20.0523 -2.67919 10.449
-23.7791 -3.86303 11.1217
-20.0779 -2.74681 10.4554
-21.2317 -4.12608 10.6946
-20.7705 -4.33076 10.6221
-20.0989 -4.25231 10.505
-18.2456 6.09175 9.87257
-18.3532 6.09571 9.89083
-18.7375 6.14052 9.9551
-19.8226 5.86771 10.1488
-20.0365 5.70047 10.1904
-21.0884 5.67523 10.3709
-19.7308 3.5837 10.2028
-22.1692 5.82198 10.551
-20.4345 3.60181 10.3225
-19.7079 1.97584 10.248
-25.6851 5.74951 11.1538
-20.5858 1.79535 10.4035
-20.6186 1.69901 10.412
-27.3116 5.85008 11.4286
-21.1511 1.69427 10.5031
-29.597 6.22848 11.8075
-25.7556 3.92074 11.2217
-22.0339 1.66818 10.6547
-22.4614 1.78506 10.7242
-26.906 4.00081 11.4158
-24.6376 2.03859 11.0882
-33.7578 4.53801 12.5698
-20.3201 -0.456091 10.4268
-20.3507 -0.507824 10.4337
-21.4057 -0.439309 10.6118
-23.5563 -2.19875 11.0329
-32.9914 -3.50388 12.6844
-29.4073 -3.72462 12.0789
-26.2234 -3.84314 11.5387
-20.8935 -2.67315 10.5925
-20.4476 -2.61678 10.5146
-25.0923 -3.97261 11.3494
-20.4566 -2.78496 10.5213
-20.1283 -2.72448 10.4633
-20.2698 -2.78604 10.4894
-22.9748 -4.21278 10.995
-21.1542 -4.32391 10.6874
-20.1754 -4.21886 10.517
-20.1045 -4.26889 10.5064
-18.2767 6.06146 9.8788
-18.7393 6.21478 9.95314
-19.0924 6.08062 10.0176
-20.0252 5.71042 10.1882
-19.5433 3.5093 10.1731
-21.2094 5.36443 10.401
-20.3349 3.69899 10.3025
